ply
format ascii 1.0
element vertex 855
property double x
property double y
property double z
end_header
0.001220929982999 -0.000700830197413 -0.000887295370800
0.001216399128136 -0.000710591671712 -0.000894914674408
0.001216036151721 -0.000718190736595 -0.000895512672138
0.001215669856944 -0.000725784707858 -0.000896116120518
0.001215300248749 -0.000733373538960 -0.000896725011417
0.001214927332118 -0.000740957183480 -0.000897339336636
0.001214551112078 -0.000748535595111 -0.000897959087909
0.001214171593694 -0.000756108727666 -0.000898584256902
0.001213788782072 -0.000763676535077 -0.000899214835216
0.001213402682358 -0.000771238971395 -0.000899850814385
0.001213013299741 -0.000778795990794 -0.000900492185876
0.001212620639448 -0.000786347547569 -0.000901138941091
0.001212224706744 -0.000793893596136 -0.000901791071366
0.001211825506938 -0.000801434091038 -0.000902448567972
0.001211423045375 -0.000808968986940 -0.000903111422114
0.001211017327442 -0.000816498238632 -0.000903779624934
0.001210608358564 -0.000824021801034 -0.000904453167509
0.001210196144205 -0.000831539629188 -0.000905132040851
0.001209780689867 -0.000839051678270 -0.000905816235908
0.001209362001093 -0.000846557903579 -0.000906505743566
0.001208940083464 -0.000854058260547 -0.000907200554647
0.001208514942596 -0.000861552704737 -0.000907900659909
0.001208086584148 -0.000869041191841 -0.000908606050049
0.001218534976760 -0.000889273470079 -0.000883268951925
0.001218045603466 -0.000896793016421 -0.000884079235839
0.001217553010598 -0.000904305886351 -0.000884894825941
0.001217057204732 -0.000911812036135 -0.000885715711361
0.001216558192484 -0.000919311422188 -0.000886541881174
0.001216055980505 -0.000926804001079 -0.000887373324391
0.001215550575481 -0.000934289729529 -0.000888210029965
0.001215041984134 -0.000941768564412 -0.000889051986791
0.001214530213224 -0.000949240462754 -0.000889899183705
0.001214015269543 -0.000956705381740 -0.000890751609485
0.001213497159921 -0.000964163278707 -0.000891609252849
0.001212975891220 -0.000971614111149 -0.000892472102459
0.001212451470340 -0.000979057836717 -0.000893340146921
0.001211923904213 -0.000986494413221 -0.000894213374783
0.001211393199807 -0.000993923798627 -0.000895091774536
0.001210859364122 -0.001001345951061 -0.000895975334616
0.001203400001739 -0.001008229729001 -0.000908601851638
0.001202821772552 -0.001015575611624 -0.000909560149607
0.001202240523104 -0.001022913803614 -0.000910523422678
0.001201656260916 -0.001030244265360 -0.000911491658416
0.001201068993544 -0.001037566957424 -0.000912464844340
0.001200478728570 -0.001044881840531 -0.000913442967917
0.001199885473608 -0.001052188875579 -0.000914426016566
0.001199289236301 -0.001059488023637 -0.000915413977658
0.001198690024319 -0.001066779245942 -0.000916406838516
0.001188881249604 -0.000086668570041 -0.000977722230078
0.001188803303316 -0.000094186448750 -0.000977849852113
0.001188722072643 -0.000101703350482 -0.000977982783338
0.001188637558658 -0.000109219227705 -0.000978121022008
0.001188549762478 -0.000116734032915 -0.000978264566308
0.001204668662835 -0.000125925024543 -0.000944015051298
0.001204571229187 -0.000133538808029 -0.000944174789065
0.001204470415229 -0.000141151333751 -0.000944340011409
0.001204366222319 -0.000148762552669 -0.000944510716116
0.001204258651860 -0.000156372415774 -0.000944686900897
0.001204147705301 -0.000163980874088 -0.000944868563390
0.001205198018260 -0.000167746533102 -0.000943109350079
0.001205121610731 -0.000175362854257 -0.000943233329159
0.001205041815618 -0.000182978040211 -0.000943362804943
0.001204958634003 -0.000190592041816 -0.000943497775676
0.001204872067014 -0.000198204809954 -0.000943638239526
0.001204782115824 -0.000205816295532 -0.000943784194591
0.001204688781652 -0.000213426449487 -0.000943935638892
0.001204592065762 -0.000221035222786 -0.000944092570378
0.001204491969466 -0.000228642566428 -0.000944254986922
0.001204388494119 -0.000236248431442 -0.000944422886324
0.001204281641121 -0.000243852768893 -0.000944596266310
0.001204171411921 -0.000251455529879 -0.000944775124535
0.001204057808009 -0.000259056665533 -0.000944959458575
0.001203940830923 -0.000266656127026 -0.000945149265937
0.001203820482247 -0.000274253865566 -0.000945344544052
0.001203696763607 -0.000281849832400 -0.000945545290279
0.001203569676677 -0.000289443978815 -0.000945751501904
0.001203439223176 -0.000297036256139 -0.000945963176138
0.001203305404866 -0.000304626615740 -0.000946180310120
0.001203168223556 -0.000312215009034 -0.000946402900916
0.001203027681099 -0.000319801387476 -0.000946630945518
0.001202883779393 -0.000327385702569 -0.000946864440848
0.001202736520381 -0.000334967905863 -0.000947103383752
0.001202585906051 -0.000342547948953 -0.000947347771006
0.001202431938435 -0.000350125783485 -0.000947597599311
0.001202274619610 -0.000357701361152 -0.000947852865297
0.001202113951698 -0.000365274633701 -0.000948113565523
0.001218517253643 -0.000377934942934 -0.000913198109214
0.001218344608918 -0.000385605896279 -0.000913479288084
0.001218168516988 -0.000393274313953 -0.000913766081267
0.001217988980270 -0.000400940146246 -0.000914058484822
0.001217806001232 -0.000408603343506 -0.000914356494734
0.001217619582384 -0.000416263856143 -0.000914660106912
0.001217429726286 -0.000423921634627 -0.000914969317189
0.001217236435542 -0.000431576629489 -0.000915284121322
0.001217039712803 -0.000439228791326 -0.000915604514996
0.001216839560765 -0.000446878070800 -0.000915930493817
0.001216635982170 -0.000454524418634 -0.000916262053320
0.001216428979808 -0.000462167785624 -0.000916599188962
0.001216218556513 -0.000469808122629 -0.000916941896129
0.001216004715164 -0.000477445380580 -0.000917290170129
0.001215787458687 -0.000485079510476 -0.000917644006198
0.001215566790052 -0.000492710463388 -0.000918003399497
0.001215342712276 -0.000500338190460 -0.000918368345115
0.001215115228421 -0.000507962642907 -0.000918738838066
0.001214884341592 -0.000515583772020 -0.000919114873290
0.001214650054941 -0.000523201529165 -0.000919496445653
0.001214412371665 -0.000530815865784 -0.000919883549951
0.001214171295005 -0.000538426733398 -0.000920276180904
0.001213926828247 -0.000546034083605 -0.000920674333161
0.001213678974722 -0.000553637868082 -0.000921078001296
0.001213427737804 -0.000561238038589 -0.000921487179814
0.001213173120914 -0.000568834546965 -0.000921901863144
0.001212915127515 -0.000576427345134 -0.000922322045646
0.001212653761115 -0.000584016385103 -0.000922747721607
0.001212389025265 -0.000591601618962 -0.000923178885241
0.001212120923562 -0.000599182998889 -0.000923615530693
0.001211849459645 -0.000606760477149 -0.000924057652035
0.001211574637198 -0.000614334006093 -0.000924505243269
0.001228085820191 -0.000630445341334 -0.000889235639453
0.001227795304913 -0.000638112287032 -0.000889710554244
0.001227501337828 -0.000645774996358 -0.000890191111815
0.001227203922997 -0.000653433420409 -0.000890677305530
0.001226903064525 -0.000661087510380 -0.000891169128677
0.001226598766561 -0.000668737217567 -0.000891666574473
0.001222227311029 -0.000678653180207 -0.000898980231153
0.001221874290228 -0.000686254358166 -0.000899558969760
0.001221517898217 -0.000693850605566 -0.000900143218234
0.001221158139853 -0.000701441875178 -0.000900732968625
0.001220795020035 -0.000709028119889 -0.000901328212911
0.001220428543706 -0.000716609292701 -0.000901928943004
0.001220058715851 -0.000724185346731 -0.000902535150743
0.001219685541496 -0.000731756235212 -0.000903146827903
0.001219309025708 -0.000739321911496 -0.000903763966187
0.001218929173598 -0.000746882329055 -0.000904386557232
0.001218545990317 -0.000754437441477 -0.000905014592607
0.001218159481057 -0.000761987202475 -0.000905648063812
0.001217769651053 -0.000769531565879 -0.000906286962282
0.001217376505577 -0.000777070485646 -0.000906931279384
0.001216980049947 -0.000784603915852 -0.000907581006418
0.001216580289517 -0.000792131810701 -0.000908236134619
0.001216177229684 -0.000799654124520 -0.000908896655154
0.001215770875886 -0.000807170811763 -0.000909562559126
0.001215361233597 -0.000814681827009 -0.000910233837572
0.001214948308336 -0.000822187124968 -0.000910910481463
0.001214532105657 -0.000829686660476 -0.000911592481707
0.001214112631157 -0.000837180388499 -0.000912279829146
0.001213689890471 -0.000844668264136 -0.000912972514558
0.001213263889274 -0.000852150242614 -0.000913670528656
0.001207291065113 -0.000860529271398 -0.000923682940001
0.001223343442145 -0.000879749168515 -0.000889082180545
0.001222852827756 -0.000887256464163 -0.000889890434774
0.001222358955963 -0.000894757097483 -0.000890704030666
0.001221861833416 -0.000902251024398 -0.000891522957292
0.001221361466799 -0.000909738200986 -0.000892347203665
0.001220857862835 -0.000917218583476 -0.000893176758733
0.001220351028283 -0.000924692128252 -0.000894011611386
0.001219840969939 -0.000932158791850 -0.000894851750455
0.001219327694634 -0.000939618530963 -0.000895697164710
0.001218811209238 -0.000947071302439 -0.000896547842862
0.001218291520653 -0.000954517063281 -0.000897403773562
0.001217768635821 -0.000961955770653 -0.000898264945406
0.001217242561716 -0.000969387381873 -0.000899131346927
0.001216713305349 -0.000976811854419 -0.000900002966605
0.001209350647902 -0.000983879857052 -0.000912401658325
0.001208776482983 -0.000991229332489 -0.000913348488978
0.001208199246598 -0.000998571205531 -0.000914300353870
0.001207618946295 -0.001005905435908 -0.000915257240585
0.001207035589657 -0.001013231983521 -0.000916219136659
0.001206449184295 -0.001020550808440 -0.000917186029574
0.001205859737851 -0.001027861870904 -0.000918157906764
0.001205267258000 -0.001035165131320 -0.000919134755612
0.001204671752444 -0.001042460550270 -0.000920116563452
0.001204073228917 -0.001049748088504 -0.000921103317568
0.001203471695184 -0.001057027706947 -0.000922095005195
0.001202867159037 -0.001064299366693 -0.000923091613520
0.001193222168760 -0.000093992497087 -0.000983725930051
0.001193140317980 -0.000101493818512 -0.000983859202830
0.001209305324596 -0.000110463349761 -0.000949723679501
0.001209213946870 -0.000118063539569 -0.000949872849059
0.001209119151199 -0.000125662565592 -0.000950027536926
0.001209020938870 -0.000133260378454 -0.000950187741016
0.001208919311216 -0.000140856928811 -0.000950353459163
0.001208814269615 -0.000148452167346 -0.000950524689132
0.001208705815493 -0.000156046044775 -0.000950701428608
0.001209721242838 -0.000159793960205 -0.000949009064615
0.001209647466945 -0.000167395363199 -0.000949128183118
0.001209570267357 -0.000174995674047 -0.000949252829515
0.001209489645131 -0.000182594843302 -0.000949383002103
0.001209405601366 -0.000190192821540 -0.000949518699103
0.001209318137211 -0.000197789559368 -0.000949659918664
0.001209227253859 -0.000205385007420 -0.000949806658856
0.001209132952552 -0.000212979116357 -0.000949958917677
0.001209035234577 -0.000220571836873 -0.000950116693048
0.001208934101266 -0.000228163119693 -0.000950279982816
0.001208829554001 -0.000235752915575 -0.000950448784754
0.001208721594206 -0.000243341175310 -0.000950623096559
0.001208610223354 -0.000250927849723 -0.000950802915854
0.001208495442964 -0.000258512889678 -0.000950988240187
0.001208377254601 -0.000266096246072 -0.000951179067032
0.001208255659874 -0.000273677869845 -0.000951375393788
0.001208130660441 -0.000281257711973 -0.000951577217779
0.001208002258005 -0.000288835723472 -0.000951784536258
0.001207870454314 -0.000296411855402 -0.000951997346401
0.001207735251163 -0.000303986058864 -0.000952215645309
0.001207596650391 -0.000311558285003 -0.000952439430013
0.001207454653885 -0.000319128485009 -0.000952668697466
0.001207309263577 -0.000326696610117 -0.000952903444550
0.001207160481444 -0.000334262611611 -0.000953143668073
0.001207008309508 -0.000341826440821 -0.000953389364768
0.001206852749839 -0.000349388049126 -0.000953640531296
0.001206693804549 -0.000356947387958 -0.000953897164244
0.001223137453333 -0.000369472465831 -0.000919109400063
0.001222966511435 -0.000377129241872 -0.000919386426777
0.001222792084632 -0.000384783518222 -0.000919669101094
0.001222614175338 -0.000392435244841 -0.000919957419100
0.001222432786016 -0.000400084371753 -0.000920251376804
0.001222247919175 -0.000407730849037 -0.000920550970142
0.001222059577371 -0.000415374626836 -0.000920856194969
0.001221867763207 -0.000423015655354 -0.000921167047067
0.001221672479334 -0.000430653884858 -0.000921483522141
0.001221473728449 -0.000438289265680 -0.000921805615819
0.001221271513297 -0.000445921748217 -0.000922133323654
0.001221065836667 -0.000453551282933 -0.000922466641124
0.001220856701399 -0.000461177820358 -0.000922805563629
0.001220644110376 -0.000468801311093 -0.000923150086496
0.001220428066527 -0.000476421705807 -0.000923500204976
0.001220208572831 -0.000484038955241 -0.000923855914245
0.001219985632310 -0.000491653010207 -0.000924217209403
0.001219759248034 -0.000499263821591 -0.000924584085477
0.001219529423117 -0.000506871340354 -0.000924956537418
0.001219296160720 -0.000514475517529 -0.000925334560104
0.001219059464051 -0.000522076304229 -0.000925718148337
0.001218819336362 -0.000529673651642 -0.000926107296847
0.001218575780951 -0.000537267511036 -0.000926502000287
0.001218328801162 -0.000544857833757 -0.000926902253241
0.001218078400384 -0.000552444571233 -0.000927308050215
0.001217824582051 -0.000560027674972 -0.000927719385643
0.001217567349643 -0.000567607096568 -0.000928136253889
0.001217306706683 -0.000575182787694 -0.000928558649238
0.001217042656742 -0.000582754700111 -0.000928986565909
0.001216775203433 -0.000590322785667 -0.000929419998043
0.001216504350414 -0.000597886996292 -0.000929858939711
0.001216230101390 -0.000605447284009 -0.000930303384912
0.001232782073272 -0.000621410749172 -0.000895162920709
0.001232492074433 -0.000629064217775 -0.000895634633860
0.001232198585193 -0.000636713476418 -0.000896112024509
0.001231901609636 -0.000644358475855 -0.000896595086014
0.001227646742420 -0.000654379515254 -0.000903677382490
0.001227300604745 -0.000661977463424 -0.000904242047096
0.001226951047867 -0.000669570600171 -0.000904812272262
0.001226598076595 -0.000677158877698 -0.000905388050155
0.001226241695781 -0.000684742248321 -0.000905969372874
0.001225881910320 -0.000692320664469 -0.000906556232444
0.001225518725150 -0.000699894078686 -0.000907148620822
0.001225152145253 -0.000707462443631 -0.000907746529893
0.001224782175655 -0.000715025712079 -0.000908349951476
0.001224408821422 -0.000722583836921 -0.000908958877314
0.001224032087665 -0.000730136771169 -0.000909573299087
0.001223651979536 -0.000737684467953 -0.000910193208401
0.001223268502231 -0.000745226880523 -0.000910818596796
0.001222881660987 -0.000752763962248 -0.000911449455743
0.001222491461082 -0.000760295666624 -0.000912085776644
0.001222097907838 -0.000767821947265 -0.000912727550834
0.001221701006618 -0.000775342757911 -0.000913374769580
0.001221300762825 -0.000782858052427 -0.000914027424081
0.001220897181904 -0.000790367784804 -0.000914685505469
0.001220490269342 -0.000797871909158 -0.000915349004811
0.001220080030666 -0.000805370379734 -0.000916017913106
0.001219666471444 -0.000812863150905 -0.000916692221286
0.001219249597284 -0.000820350177174 -0.000917371920219
0.001218829413835 -0.000827831413173 -0.000918057000706
0.001212961337513 -0.000836356825068 -0.000927843686441
0.001212494655216 -0.000843776289183 -0.000928605970515
0.001212024753639 -0.000851189462448 -0.000929373488087
0.001211551639052 -0.000858596301373 -0.000930146228939
0.001227626680452 -0.000877748907084 -0.000895703602103
0.001227131610222 -0.000885237318855 -0.000896515088385
0.001226633251373 -0.000892719038941 -0.000897331940611
0.001226131610659 -0.000900194023082 -0.000898154147735
0.001225626694875 -0.000907662227167 -0.000898981698645
0.001225118510850 -0.000915123607244 -0.000899814582170
0.001224607065453 -0.000922578119514 -0.000900652787077
0.001224092365589 -0.000930025720332 -0.000901496302074
0.001223574418200 -0.000937466366214 -0.000902345115807
0.001223053230265 -0.000944900013830 -0.000903199216862
0.001222528808798 -0.000952326620010 -0.000904058593769
0.001222001160852 -0.000959746141741 -0.000904923234994
0.001214695349490 -0.000966928225078 -0.000917162925049
0.001214122381396 -0.000974273614622 -0.000918103074249
0.001213546297850 -0.000981611452033 -0.000919048304396
0.001212967106458 -0.000988941696551 -0.000919998603049
0.001212384814855 -0.000996264307585 -0.000920953957715
0.001211799430709 -0.001003579244711 -0.000921914355847
0.001211210961720 -0.001010886467678 -0.000922879784848
0.001210619415619 -0.001018185936404 -0.000923850232069
0.001210024800169 -0.001025477610980 -0.000924825684810
0.001209427123163 -0.001032761451668 -0.000925806130322
0.001208826392426 -0.001040037418902 -0.000926791555803
0.001208222615812 -0.001047305473292 -0.000927781948405
0.001207615801207 -0.001054565575618 -0.000928777295226
0.001213808475491 -0.000102647095901 -0.000955597746821
0.001213719846317 -0.000110232414841 -0.000955741764760
0.001213627762915 -0.000117816615554 -0.000955891332200
0.001213532226544 -0.000125399648363 -0.000956046447109
0.001213433238510 -0.000132981463620 -0.000956207107376
0.001213330800167 -0.000140562011709 -0.000956373310817
0.001213224912914 -0.000148141243039 -0.000956545055172
0.001214205058930 -0.000151871795075 -0.000954919520691
0.001214133986480 -0.000159458215242 -0.000955033710409
0.001214059454268 -0.000167043586960 -0.000955153458808
0.001213981463321 -0.000174627860485 -0.000955278764242
0.001213900014711 -0.000182210986095 -0.000955409624987
0.001213815109560 -0.000189792914098 -0.000955546039241
0.001213726749034 -0.000197373594827 -0.000955688005129
0.001213634934349 -0.000204952978644 -0.000955835520698
0.001213539666767 -0.000212531015940 -0.000955988583920
0.001213440947598 -0.000220107657139 -0.000956147192692
0.001213338778199 -0.000227682852695 -0.000956311344832
0.001213233159974 -0.000235256553095 -0.000956481038085
0.001213124094374 -0.000242828708863 -0.000956656270121
0.001213011582896 -0.000250399270554 -0.000956837038531
0.001212895627087 -0.000257968188763 -0.000957023340833
0.001212776228537 -0.000265535414121 -0.000957215174471
0.001212653388887 -0.000273100897298 -0.000957412536809
0.001212527109821 -0.000280664589003 -0.000957615425141
0.001212397393072 -0.000288226439989 -0.000957823836682
0.001212264240420 -0.000295786401047 -0.000958037768574
0.001212127653691 -0.000303344423013 -0.000958257217883
0.001211987634756 -0.000310900456768 -0.000958482181601
0.001211844185534 -0.000318454453237 -0.000958712656644
0.001211697307993 -0.000326006363392 -0.000958948639855
0.001211547004142 -0.000333556138253 -0.000959190128002
0.001211393276040 -0.000341103728888 -0.000959437117777
0.001227885026412 -0.000353394626417 -0.000924762450870
0.001227719387142 -0.000361039590590 -0.000925029560022
0.001227550222914 -0.000368682142223 -0.000925302353504
0.001227377536088 -0.000376322230898 -0.000925580827512
0.001227201329073 -0.000383959806252 -0.000925864978162
0.001227021604325 -0.000391594817983 -0.000926154801491
0.001226838364349 -0.000399227215847 -0.000926450293462
0.001226651611699 -0.000406856949661 -0.000926751449956
0.001226461348974 -0.000414483969304 -0.000927058266781
0.001226267578824 -0.000422108224717 -0.000927370739663
0.001226070303946 -0.000429729665905 -0.000927688864255
0.001225869527083 -0.000437348242940 -0.000928012636132
0.001225665251028 -0.000444963905957 -0.000928342050791
0.001225457478620 -0.000452576605162 -0.000928677103652
0.001225246212746 -0.000460186290826 -0.000929017790062
0.001225031456340 -0.000467792913292 -0.000929364105288
0.001224813212384 -0.000475396422973 -0.000929716044521
0.001224591483906 -0.000482996770353 -0.000930073602879
0.001224366273982 -0.000490593905990 -0.000930436775402
0.001224137585734 -0.000498187780516 -0.000930805557055
0.001223905422331 -0.000505778344637 -0.000931179942726
0.001223669786990 -0.000513365549136 -0.000931559927230
0.001223430682973 -0.000520949344874 -0.000931945505305
0.001223188113590 -0.000528529682788 -0.000932336671615
0.001222942082194 -0.000536106513897 -0.000932733420750
0.001222692592189 -0.000543679789299 -0.000933135747224
0.001222439647021 -0.000551249460174 -0.000933543645478
0.001222183250185 -0.000558815477786 -0.000933957109876
0.001221923405220 -0.000566377793480 -0.000934376134712
0.001221660115711 -0.000573936358687 -0.000934800714203
0.001221393385291 -0.000581491124926 -0.000935230842495
0.001221123217634 -0.000589042043800 -0.000935666513657
0.001220849616464 -0.000596589067001 -0.000936107721689
0.001237441699152 -0.000612405354291 -0.000901096308345
0.001237152293725 -0.000620045324095 -0.000901564724721
0.001233016075083 -0.000630167418601 -0.000908414594815
0.001232677072172 -0.000637761829786 -0.000908964914712
0.001232334602047 -0.000645351551396 -0.000909520845363
0.001231988669461 -0.000652936535068 -0.000910082379066
0.001231639279213 -0.000660516732552 -0.000910649508043
0.001231286436145 -0.000668092095710 -0.000911222224445
0.001230930145146 -0.000675662576515 -0.000911800520350
0.001230570411147 -0.000683228127056 -0.000912384387766
0.001230207239123 -0.000690788699533 -0.000912973818627
0.001229840634096 -0.000698344246266 -0.000913568804798
0.001229470601129 -0.000705894719689 -0.000914169338072
0.001229097145329 -0.000713440072353 -0.000914775410172
0.001228720271848 -0.000720980256931 -0.000915387012749
0.001228339985881 -0.000728515226212 -0.000916004137384
0.001227956292666 -0.000736044933108 -0.000916626775591
0.001227569197482 -0.000743569330651 -0.000917254918811
0.001227178705653 -0.000751088371996 -0.000917888558417
0.001226784822547 -0.000758602010422 -0.000918527685714
0.001226387553571 -0.000766110199331 -0.000919172291937
0.001225986904176 -0.000773612892253 -0.000919822368253
0.001225582879856 -0.000781110042841 -0.000920477905761
0.001225175486145 -0.000788601604878 -0.000921138895492
0.001224764728620 -0.000796087532273 -0.000921805328409
0.001224350612899 -0.000803567779064 -0.000922477195410
0.001218589470954 -0.000812235873557 -0.000932036815933
0.001218128382197 -0.000819655717202 -0.000932786272999
0.001217664024530 -0.000827069374412 -0.000933541018019
0.001217196404209 -0.000834476801078 -0.000934301040846
0.001216725527530 -0.000841877953236 -0.000935066331272
0.001216251400826 -0.000849272787062 -0.000935836879025
0.001232367139622 -0.000868270399558 -0.000901518695602
0.001231870952036 -0.000875746603671 -0.000902327957682
0.001231371437864 -0.000883216131793 -0.000903142620709
0.001230868603930 -0.000890678939325 -0.000903962673577
0.001230362457098 -0.000898134981819 -0.000904788105118
0.001229853004268 -0.000905584214985 -0.000905618904101
0.001229340252380 -0.000913026594688 -0.000906455059232
0.001228824208411 -0.000920462076951 -0.000907296559159
0.001228304879376 -0.000927890617955 -0.000908143392464
0.001227782272328 -0.000935312174036 -0.000908995547673
0.001220577372265 -0.000942672582264 -0.000921004673911
0.001220008929909 -0.000950021311306 -0.000921932801074
0.001219437320231 -0.000957362581707 -0.000922866068247
0.001218862550853 -0.000964696352042 -0.000923804463019
0.001218284629431 -0.000972022581056 -0.000924747972926
0.001217703563653 -0.000979341227664 -0.000925696585452
0.001217119361242 -0.000986652250950 -0.000926650288024
0.001216532029951 -0.000993955610168 -0.000927609068019
0.001215941577568 -0.001001251264747 -0.000928572912761
0.001215348011912 -0.001008539174283 -0.000929541809520
0.001214751340834 -0.001015819298549 -0.000930515745515
0.001214151572217 -0.001023091597489 -0.000931494707915
0.001213548713975 -0.001030356031221 -0.000932478683837
0.001205301660612 -0.001036414203031 -0.000946239195262
0.001204655716512 -0.001043597993694 -0.000947294595182
0.001204006805762 -0.001050773493372 -0.000948354806463
0.001218714230758 -0.000136407840038 -0.000960736961834
0.001218649430280 -0.000143980166496 -0.000960840565063
0.001218581133076 -0.000151551538898 -0.000960949758869
0.001218509340092 -0.000159121907184 -0.000961064541741
0.001218434052324 -0.000166691221312 -0.000961184912086
0.001218355270815 -0.000174259431269 -0.000961310868236
0.001218272996656 -0.000181826487066 -0.000961442408446
0.001218187230988 -0.000189392338738 -0.000961579530894
0.001218097974999 -0.000196956936352 -0.000961722233679
0.001218005229924 -0.000204520230000 -0.000961870514826
0.001217908997048 -0.000212082169808 -0.000962024372282
0.001217809277704 -0.000219642705931 -0.000962183803915
0.001217706073272 -0.000227201788555 -0.000962348807520
0.001217599385179 -0.000234759367903 -0.000962519380812
0.001217489214903 -0.000242315394229 -0.000962695521432
0.001217375563967 -0.000249869817826 -0.000962877226942
0.001217258433943 -0.000257422589022 -0.000963064494831
0.001217137826451 -0.000264973658184 -0.000963257322507
0.001217013743158 -0.000272522975716 -0.000963455707307
0.001216886185779 -0.000280070492066 -0.000963659646487
0.001216755156077 -0.000287616157720 -0.000963869137229
0.001216620655861 -0.000295159923209 -0.000964084176641
0.001216482686989 -0.000302701739107 -0.000964304761753
0.001216341251365 -0.000310241556031 -0.000964530889518
0.001216196350943 -0.000317779324647 -0.000964762556816
0.001216047987721 -0.000325314995665 -0.000964999760450
0.001215896163746 -0.000332848519846 -0.000965242497147
0.001232426770228 -0.000345005783269 -0.000930695696507
0.001232263021304 -0.000352636437608 -0.000930958459834
0.001232095709749 -0.000360264717207 -0.000931226940014
0.001231924837916 -0.000367890571328 -0.000931501133272
0.001231750408207 -0.000375513949289 -0.000931781035757
0.001231572423069 -0.000383134800465 -0.000932066643536
0.001231390885004 -0.000390753074291 -0.000932357952601
0.001231205796558 -0.000398368720261 -0.000932654958861
0.001231017160329 -0.000405981687932 -0.000932957658150
0.001230824978963 -0.000413591926921 -0.000933266046223
0.001230629255153 -0.000421199386911 -0.000933580118755
0.001230429991643 -0.000428804017649 -0.000933899871346
0.001230227191225 -0.000436405768947 -0.000934225299514
0.001230020856737 -0.000444004590686 -0.000934556398704
0.001229810991070 -0.000451600432814 -0.000934893164280
0.001229597597159 -0.000459193245347 -0.000935235591531
0.001229380677989 -0.000466782978374 -0.000935583675666
0.001229160236593 -0.000474369582054 -0.000935937411819
0.001228936276050 -0.000481953006619 -0.000936296795047
0.001228708799491 -0.000489533202375 -0.000936661820330
0.001228477810090 -0.000497110119702 -0.000937032482572
0.001228243311072 -0.000504683709058 -0.000937408776598
0.001228005305708 -0.000512253920977 -0.000937790697161
0.001227763797315 -0.000519820706070 -0.000938178238934
0.001227518789261 -0.000527384015030 -0.000938571396518
0.001227270284957 -0.000534943798627 -0.000938970164434
0.001227018287865 -0.000542500007716 -0.000939374537132
0.001226762801490 -0.000550052593233 -0.000939784508984
0.001226503829386 -0.000557601506196 -0.000940200074287
0.001226241375154 -0.000565146697712 -0.000940621227265
0.001225975442440 -0.000572688118969 -0.000941047962065
0.001225706034938 -0.000580225721246 -0.000941480272761
0.001225433156387 -0.000587759455908 -0.000941918153353
0.001221554509914 -0.000597877608395 -0.000948288757317
0.001238002688548 -0.000613608339865 -0.000913728567078
0.001237667557562 -0.000621194330632 -0.000914269935003
0.001237328916048 -0.000628775707439 -0.000914816955783
0.001236986768745 -0.000636352421474 -0.000915369621773
0.001236641120439 -0.000643924424034 -0.000915927925256
0.001236291975960 -0.000651491666528 -0.000916491858441
0.001235939340185 -0.000659054100477 -0.000917061413462
0.001235583218035 -0.000666611677514 -0.000917636582382
0.001235223614479 -0.000674164349388 -0.000918217357191
0.001234860534527 -0.000681712067960 -0.000918803729804
0.001234493983239 -0.000689254785210 -0.000919395692066
0.001234123965715 -0.000696792453233 -0.000919993235749
0.001233750487102 -0.000704325024242 -0.000920596352553
0.001233373552592 -0.000711852450571 -0.000921205034109
0.001232993167419 -0.000719374684673 -0.000921819271972
0.001232609336864 -0.000726891679120 -0.000922439057630
0.001232222066248 -0.000734403386609 -0.000923064382500
0.001231831360939 -0.000741909759957 -0.000923695237926
0.001231437226347 -0.000749410752109 -0.000924331615186
0.001231039667926 -0.000756906316130 -0.000924973505484
0.001230638691173 -0.000764396405214 -0.000925620899958
0.001230234301628 -0.000771880972682 -0.000926273789675
0.001229826504873 -0.000779359971980 -0.000926932165633
0.001229415306533 -0.000786833356685 -0.000927596018764
0.001223719228645 -0.000795586972775 -0.000936999771083
0.001223260667992 -0.000803000875224 -0.000937741458201
0.001222798794860 -0.000810408653750 -0.000938488477384
0.001222333615527 -0.000817810263772 -0.000939240818502
0.001221865136309 -0.000825205660853 -0.000939998471361
0.001221393363564 -0.000832594800696 -0.000940761425704
0.001220918303686 -0.000839977639149 -0.000941529671213
0.001220439963108 -0.000847354132201 -0.000942303197507
0.001236576959974 -0.000866285004354 -0.000908142598177
0.001236076372039 -0.000873742354202 -0.000908954958031
0.001235572426344 -0.000881192999782 -0.000909772742459
0.001235065129824 -0.000888636896312 -0.000910595940238
0.001234554489448 -0.000896073999165 -0.000911424540078
0.001234040512225 -0.000903504263872 -0.000912258530630
0.001233523205206 -0.000910927646120 -0.000913097900479
0.001233002575476 -0.000918344101757 -0.000913942638151
0.001225857883568 -0.000925814622528 -0.000925790744373
0.001225291007014 -0.000933159139426 -0.000926711743435
0.001224720918584 -0.000940496252048 -0.000927637929106
0.001224147625948 -0.000947825918472 -0.000928569288959
0.001223571136811 -0.000955148096947 -0.000929505810511
0.001222991458913 -0.000962462745894 -0.000930447481225
0.001222408600026 -0.000969769823900 -0.000931394288509
0.001221822567958 -0.000977069289726 -0.000932346219718
0.001221233370548 -0.000984361102306 -0.000933303262149
0.001220641015670 -0.000991645220744 -0.000934265403051
0.001220045511230 -0.000998921604319 -0.000935232629615
0.001219446865167 -0.001006190212483 -0.000936204928983
0.001218845085452 -0.001013451004862 -0.000937182288243
0.001210651775164 -0.001019636361052 -0.000950783360634
0.001210006496559 -0.001026817334230 -0.000951832458942
0.001209358207697 -0.001033990061746 -0.000952886415310
0.001208706917033 -0.001041154505649 -0.000953945216039
0.001208052633050 -0.001048310628168 -0.000955008847384
0.001223054322651 -0.000136119201573 -0.000966772044184
0.001222988872470 -0.000143675461019 -0.000966876176051
0.001222919890547 -0.000151230761302 -0.000966985926954
0.001222847377845 -0.000158785052092 -0.000967101295361
0.001222771335375 -0.000166338283085 -0.000967222279662
0.001222691764200 -0.000173890403999 -0.000967348878168
0.001222608665429 -0.000181441364578 -0.000967481089112
0.001222522040222 -0.000188991114594 -0.000967618910650
0.001222431889787 -0.000196539603846 -0.000967762340859
0.001222338215382 -0.000204086782163 -0.000967911377739
0.001222241018313 -0.000211632599406 -0.000968066019211
0.001222140299935 -0.000219177005464 -0.000968226263119
0.001222036061653 -0.000226719950261 -0.000968392107229
0.001221928304918 -0.000234261383756 -0.000968563549231
0.001221817031233 -0.000241801255941 -0.000968740586734
0.001221702242148 -0.000249339516845 -0.000968923217274
0.001221583939261 -0.000256876116534 -0.000969111438306
0.001221462124219 -0.000264411005113 -0.000969305247209
0.001221336798720 -0.000271944132727 -0.000969504641285
0.001221207964506 -0.000279475449562 -0.000969709617759
0.001221075623370 -0.000287004905844 -0.000969920173779
0.001220939777154 -0.000294532451844 -0.000970136306415
0.001220800427747 -0.000302058037877 -0.000970358012663
0.001220657577086 -0.000309581614302 -0.000970585289439
0.001220511227157 -0.000317103131527 -0.000970818133585
0.001220361379993 -0.000324622540005 -0.000971056541865
0.001236930107016 -0.000336646830221 -0.000936637631487
0.001236768323560 -0.000344263125852 -0.000936895970320
0.001236602939822 -0.000351877085282 -0.000937160058148
0.001236433958144 -0.000359488657454 -0.000937429891233
0.001236261380918 -0.000367097791367 -0.000937705465757
0.001236085210586 -0.000374704436079 -0.000937986777819
0.001235905449640 -0.000382308540706 -0.000938273823442
0.001235722100620 -0.000389910054422 -0.000938566598566
0.001235535166119 -0.000397508926465 -0.000938865099053
0.001235344648778 -0.000405105106131 -0.000939169320686
0.001235150551287 -0.000412698542784 -0.000939479259169
0.001234952876387 -0.000420289185850 -0.000939794910125
0.001234751626868 -0.000427876984819 -0.000940116269100
0.001234546805569 -0.000435461889250 -0.000940443331560
0.001234338415377 -0.000443043848770 -0.000940776092893
0.001234126459231 -0.000450622813074 -0.000941114548408
0.001233910940117 -0.000458198731927 -0.000941458693337
0.001233691861071 -0.000465771555165 -0.000941808522833
0.001233469225176 -0.000473341232699 -0.000942164031970
0.001233243035565 -0.000480907714511 -0.000942525215746
0.001233013295421 -0.000488470950658 -0.000942892069081
0.001232780007974 -0.000496030891274 -0.000943264586816
0.001232543176500 -0.000503587486568 -0.000943642763716
0.001232302804329 -0.000511140686830 -0.000944026594470
0.001232058894833 -0.000518690442426 -0.000944416073689
0.001231811451436 -0.000526236703805 -0.000944811195906
0.001231560477610 -0.000533779421495 -0.000945211955579
0.001231305976872 -0.000541318546109 -0.000945618347091
0.001231047952788 -0.000548854028341 -0.000946030364745
0.001230786408973 -0.000556385818972 -0.000946448002773
0.001230521349088 -0.000563913868867 -0.000946871255327
0.001230252776841 -0.000571438128979 -0.000947300116485
0.001226447347060 -0.000581608184223 -0.000953519066870
0.001226130040138 -0.000589090957923 -0.000954027332878
0.001242617809878 -0.000604677295073 -0.000919592766514
0.001242283158592 -0.000612250204188 -0.000920130703346
0.001241944958132 -0.000619818527361 -0.000920674327201
0.001241603213265 -0.000627382215441 -0.000921223630425
0.001241257928808 -0.000634941219388 -0.000921778605290
0.001240909109623 -0.000642495490270 -0.000922339243991
0.001240556760618 -0.000650044979271 -0.000922905538651
0.001240200886749 -0.000657589637684 -0.000923477481317
0.001239841493018 -0.000665129416920 -0.000924055063964
0.001239478584472 -0.000672664268504 -0.000924638278491
0.001239112166203 -0.000680194144076 -0.000925227116724
0.001238742243352 -0.000687718995394 -0.000925821570419
0.001238368821101 -0.000695238774336 -0.000926421631254
0.001237991904682 -0.000702753432898 -0.000927027290839
0.001237611499368 -0.000710262923195 -0.000927638540708
0.001237227610480 -0.000717767197466 -0.000928255372327
0.001236840243381 -0.000725266208071 -0.000928877777086
0.001236449403481 -0.000732759907494 -0.000929505746307
0.001236055096233 -0.000740248248341 -0.000930139271240
0.001235657327135 -0.000747731183348 -0.000930778343063
0.001235256101728 -0.000755208665371 -0.000931422952884
0.001234851425598 -0.000762680647400 -0.000932073091743
0.001229266193616 -0.000771570661515 -0.000941247554008
0.001228813684517 -0.000778984558745 -0.000941975899976
0.001228357812955 -0.000786392441484 -0.000942709631966
0.001227898585184 -0.000793794264541 -0.000943448739934
0.001227436007501 -0.000801189982863 -0.000944193213770
0.001226970086241 -0.000808579551539 -0.000944943043299
0.001226500827780 -0.000815962925799 -0.000945698218284
0.001226028238534 -0.000823340061019 -0.000946458728424
0.001225552324958 -0.000830710912716 -0.000947224563353
0.001225073093547 -0.000838075436553 -0.000947995712643
0.001224590550835 -0.000845433588338 -0.000948772165804
0.001240748032961 -0.000864297756670 -0.000914768914006
0.001240243057528 -0.000871736253776 -0.000915584316651
0.001239734693246 -0.000879168018784 -0.000916405167111
0.001239222947154 -0.000886593006731 -0.000917231454042
0.001238707826330 -0.000894011172815 -0.000918063166039
0.001231668223315 -0.000901653921725 -0.000929678106281
0.001231106341194 -0.000909001486193 -0.000930586533502
0.001230541194716 -0.000916341745135 -0.000931500206226
0.001229972791561 -0.000923674655965 -0.000932419112070
0.001229401139448 -0.000931000176266 -0.000933343238595
0.001228826246126 -0.000938318263788 -0.000934272573305
0.001228248119384 -0.000945628876456 -0.000935207103647
0.001227666767042 -0.000952931972360 -0.000936146817012
0.001227082196959 -0.000960227509767 -0.000937091700736
0.001226494417024 -0.000967515447113 -0.000938041742100
0.001225903435162 -0.000974795743008 -0.000938996928328
0.001225309259333 -0.000982068356236 -0.000939957246593
0.001224711897530 -0.000989333245755 -0.000940922684011
0.001216614687698 -0.000995715090513 -0.000954296285519
0.001215973298138 -0.001002901390034 -0.000955333962236
0.001215328845912 -0.001010079529626 -0.000956376557419
0.001214681339516 -0.001017249470659 -0.000957424057375
0.001214030787471 -0.001024411174688 -0.000958476448361
0.001213377198329 -0.001031564603452 -0.000959533716590
0.001212720580672 -0.001038709718872 -0.000960595848228
0.001212060943107 -0.001045846483053 -0.000961662829394
0.001227419703842 -0.000128289025731 -0.000972713804189
0.001227357172416 -0.000135830106782 -0.000972812809196
0.001227291073347 -0.000143370274240 -0.000972917462795
0.001227221407564 -0.000150909477488 -0.000973027763516
0.001227148176046 -0.000158447665934 -0.000973143709807
0.001227071379824 -0.000165984789008 -0.000973265300039
0.001226991019975 -0.000173520796166 -0.000973392532503
0.001226907097630 -0.000181055636889 -0.000973525405411
0.001226819613967 -0.000188589260686 -0.000973663916896
0.001226728570215 -0.000196121617095 -0.000973808065012
0.001226633967654 -0.000203652655683 -0.000973957847735
0.001226535807611 -0.000211182326048 -0.000974113262962
0.001226434091465 -0.000218710577820 -0.000974274308510
0.001226328820643 -0.000226237360661 -0.000974440982120
0.001226219996623 -0.000233762624270 -0.000974613281451
0.001226107620932 -0.000241286318380 -0.000974791204086
0.001225991695146 -0.000248808392760 -0.000974974747530
0.001225872220891 -0.000256328797217 -0.000975163909208
0.001225749199842 -0.000263847481598 -0.000975358686468
0.001225622633724 -0.000271364395790 -0.000975559076580
0.001225492524311 -0.000278879489720 -0.000975765076734
0.001225358873425 -0.000286392713360 -0.000975976684045
0.001225221682939 -0.000293904016723 -0.000976193895549
0.001225080954774 -0.000301413349867 -0.000976416708203
0.001224936690900 -0.000308920662899 -0.000976645118889
0.001224788893336 -0.000316425905968 -0.000976879124409
0.001241395005935 -0.000328317885312 -0.000942588125634
0.001241235263181 -0.000335919772872 -0.000942841962343
0.001241071882520 -0.000343519363496 -0.000943101579809
0.001240904866283 -0.000351116605812 -0.000943366974331
0.001240734216851 -0.000358711448506 -0.000943638142125
0.001240559936654 -0.000366303840319 -0.000943915079327
0.001240382028178 -0.000373893730051 -0.000944197781990
0.001240200493955 -0.000381481066562 -0.000944486246090
0.001240015336569 -0.000389065798770 -0.000944780467518
0.001239826558657 -0.000396647875658 -0.000945080442087
0.001239634162903 -0.000404227246269 -0.000945386165531
0.001239438152043 -0.000411803859712 -0.000945697633500
0.001239238528865 -0.000419377665160 -0.000946014841568
0.001239035296205 -0.000426948611853 -0.000946337785227
0.001238828456950 -0.000434516649098 -0.000946666459889
0.001238618014037 -0.000442081726271 -0.000947000860887
0.001238403970452 -0.000449643792817 -0.000947340983476
0.001238186329232 -0.000457202798255 -0.000947686822829
0.001237965093464 -0.000464758692172 -0.000948038374042
0.001237740266285 -0.000472311424230 -0.000948395632132
0.001237511850878 -0.000479860944168 -0.000948758592037
0.001237279850480 -0.000487407201797 -0.000949127248617
0.001237044268375 -0.000494950147005 -0.000949501596651
0.001236805107897 -0.000502489729761 -0.000949881630845
0.001236562372427 -0.000510025900110 -0.000950267345821
0.001236316065397 -0.000517558608179 -0.000950658736129
0.001236066190288 -0.000525087804174 -0.000951055796237
0.001235812750628 -0.000532613438385 -0.000951458520538
0.001235555749995 -0.000540135461186 -0.000951866903347
0.001235295192016 -0.000547653823035 -0.000952280938902
0.001231609820159 -0.000557910325506 -0.000958273686183
0.001231300119762 -0.000565388676123 -0.000958767387129
0.001230986921185 -0.000572862817695 -0.000959266645833
0.001230670228802 -0.000580332701935 -0.000959771455336
0.001230350047031 -0.000587798280657 -0.000960281808606
0.001246862848909 -0.000603335129972 -0.000925996817168
0.001246525169506 -0.000610890379385 -0.000926536947234
0.001246183907042 -0.000618441022255 -0.000927082790527
0.001245839066363 -0.000625987009204 -0.000927634339308
0.001245490652360 -0.000633528290964 -0.000928191585765
0.001245138669975 -0.000641064818381 -0.000928754522008
0.001244783124193 -0.000648596542413 -0.000929323140073
0.001244424020050 -0.000656123414133 -0.000929897431920
0.001244061362626 -0.000663645384730 -0.000930477389436
0.001243695157049 -0.000671162405509 -0.000931063004430
0.001243325408495 -0.000678674427892 -0.000931654268642
0.001242952122183 -0.000686181403421 -0.000932251173732
0.001242575303381 -0.000693683283757 -0.000932853711292
0.001242194957401 -0.000701180020682 -0.000933461872837
0.001241811089604 -0.000708671566100 -0.000934075649810
0.001241423705392 -0.000716157872035 -0.000934695033581
0.001241032810217 -0.000723638890640 -0.000935320015449
0.001240638409573 -0.000731114574187 -0.000935950586639
0.001240240509000 -0.000738584875078 -0.000936586738304
0.001239839114085 -0.000746049745839 -0.000937228461528
0.001234322067427 -0.000755021061823 -0.000946245423784
0.001233872453166 -0.000762428789422 -0.000946965587242
0.001233419432547 -0.000769830568964 -0.000947691180396
0.001232963011839 -0.000777226354785 -0.000948422193226
0.001232503197353 -0.000784616101360 -0.000949158615650
0.001232039995440 -0.000791999763307 -0.000949900437517
0.001231573412493 -0.000799377295384 -0.000950647648613
0.001231103454946 -0.000806748652493 -0.000951400238657
0.001230630129273 -0.000814113789679 -0.000952158197305
0.001230153441989 -0.000821472662131 -0.000952921514147
0.001229673399649 -0.000828825225186 -0.000953690178709
0.001229190008847 -0.000836171434325 -0.000954464180456
0.001228703276219 -0.000843511245177 -0.000955243508786
0.001244880477026 -0.000862308749923 -0.000921397359361
0.001244371127456 -0.000869728396664 -0.000922215749802
0.001243858358027 -0.000877141283922 -0.000923039610909
0.001236882295691 -0.000884890029450 -0.000934491633562
0.001236322354142 -0.000892233226326 -0.000935392491004
0.001235759103157 -0.000899569176139 -0.000936298640366
0.001235192550460 -0.000906897835803 -0.000937210069259
0.001234622703811 -0.000914219162403 -0.000938126765236
0.001234049571006 -0.000921533113192 -0.000939048715791
0.001233473159875 -0.000928839645594 -0.000939975908359
0.001232893478289 -0.000936138717204 -0.000940908330321
0.001232310534149 -0.000943430285789 -0.000941845968998
0.001231724335397 -0.000950714309291 -0.000942788811655
0.001231134890005 -0.000957990745822 -0.000943736845502
0.001230542205983 -0.000965259553671 -0.000944690057692
0.001229946291374 -0.000972520691299 -0.000945648435324
0.001221906204412 -0.000979025854959 -0.000958860561006
0.001221265847737 -0.000986209249963 -0.000959891487273
0.001220622384119 -0.000993384534418 -0.000960927378755
0.001219975822116 -0.001000551669201 -0.000961968221722
0.001219326170316 -0.001007710615368 -0.000963014002394
0.001218673437337 -0.001014861334164 -0.000964064706943
0.001218017631828 -0.001022003787016 -0.000965120321496
0.001217358762465 -0.001029137935534 -0.000966180832132
0.001216696837954 -0.001036263741517 -0.000967246224884
0.001216031867031 -0.001043381166948 -0.000968316485737
0.001215363858458 -0.001050490173998 -0.000969391600634
0.001231745543708 -0.000120489762701 -0.000978665690875
0.001231686002700 -0.000128015599691 -0.000978759505223
0.001231622858218 -0.000135540569262 -0.000978858997301
0.001231556111153 -0.000143064620514 -0.000978964165698
0.001231485762453 -0.000150587702571 -0.000979075008927
0.001231411813111 -0.000158109764579 -0.000979191525419
0.001231334264176 -0.000165630755709 -0.000979313713524
0.001231253116743 -0.000173150625157 -0.000979441571513
0.001231168371963 -0.000180669322144 -0.000979575097577
0.001231080031033 -0.000188186795920 -0.000979714289827
0.001230988095202 -0.000195702995764 -0.000979859146295
0.001230892565772 -0.000203217870984 -0.000980009664932
0.001230793444092 -0.000210731370921 -0.000980165843609
0.001230690731565 -0.000218243444945 -0.000980327680119
0.001230584429641 -0.000225754042464 -0.000980495172175
0.001230474539823 -0.000233263112916 -0.000980668317409
0.001230361063663 -0.000240770605780 -0.000980847113376
0.001230244002764 -0.000248276470567 -0.000981031557550
0.001230123358780 -0.000255780656831 -0.000981221647326
0.001229999133413 -0.000263283114162 -0.000981417380021
0.001229871328417 -0.000270783792192 -0.000981618752872
0.001229739945596 -0.000278282640596 -0.000981825763038
0.001229604986802 -0.000285779609089 -0.000982038407597
0.001229466453940 -0.000293274647432 -0.000982256683551
0.001229324348962 -0.000300767705432 -0.000982480587822
0.001229178673873 -0.000308258732942 -0.000982710117254
0.001245821437714 -0.000320019065152 -0.000948547048768
0.001245663810987 -0.000327606494795 -0.000948796306781
0.001245502508761 -0.000335191667485 -0.000949051376928
0.001245337533353 -0.000342774531541 -0.000949312255544
0.001245168887132 -0.000350355035335 -0.000949578938884
0.001244996572518 -0.000357933127298 -0.000949851423119
0.001244820591984 -0.000365508755916 -0.000950129704341
0.001244640948055 -0.000373081869736 -0.000950413778556
0.001244457643306 -0.000380652417364 -0.000950703641692
0.001244270680366 -0.000388220347467 -0.000950999289594
0.001244080061912 -0.000395785608775 -0.000951300718025
0.001243885790676 -0.000403348150080 -0.000951607922667
0.001243687869440 -0.000410907920242 -0.000951920899121
0.001243486301035 -0.000418464868184 -0.000952239642909
0.001243281088346 -0.000426018942897 -0.000952564149469
0.001243072234309 -0.000433570093441 -0.000952894414161
0.001242859741908 -0.000441118268945 -0.000953230432262
0.001242643614181 -0.000448663418608 -0.000953572198972
0.001242423854214 -0.000456205491702 -0.000953919709408
0.001242200465145 -0.000463744437572 -0.000954272958609
0.001241973450164 -0.000471280205636 -0.000954631941533
0.001241742812507 -0.000478812745389 -0.000954996653058
0.001241508555464 -0.000486342006401 -0.000955367087985
0.001241270682373 -0.000493867938320 -0.000955743241033
0.001241029196624 -0.000501390490874 -0.000956125106844
0.001240784101655 -0.000508909613869 -0.000956512679980
0.001240535400955 -0.000516425257194 -0.000956905954925
0.001240283098061 -0.000523937370819 -0.000957304926085
0.001240027196561 -0.000531445904797 -0.000957709587785
0.001236417841172 -0.000541749873646 -0.000963549524016
0.001236112448401 -0.000549219382307 -0.000964034014619
0.001235803515474 -0.000556684760561 -0.000964524102389
0.001235491046739 -0.000564145959697 -0.000965019780440
0.001235175046591 -0.000571602931103 -0.000965521041812
0.001234855519472 -0.000579055626270 -0.000966027879470
0.001251406600000 -0.000594449197704 -0.000931868194209
0.001251069521985 -0.000601991352367 -0.000932404734583
0.001250728822224 -0.000609528929899 -0.000932947021736
0.001250384505589 -0.000617061880588 -0.000933495047922
0.001250036577002 -0.000624590154830 -0.000934048805321
0.001249685041432 -0.000632113703137 -0.000934608286035
0.001249329903897 -0.000639632476132 -0.000935173482089
0.001248971169463 -0.000647146424553 -0.000935744385434
0.001248608843244 -0.000654655499255 -0.000936320987942
0.001248242930401 -0.000662159651208 -0.000936903281412
0.001247873436143 -0.000669658831502 -0.000937491257567
