ply
format ascii 1.0
element vertex 855
property double x
property double y
property double z
end_header
0.001126946287993 -0.000285510759014 -0.000903935036657
0.001126839654885 -0.000293206423502 -0.000904119147372
0.001126730194879 -0.000300900423929 -0.000904308138955
0.001126617909288 -0.000308592716944 -0.000904502009141
0.001126502799454 -0.000316283259227 -0.000904700755610
0.001126384866756 -0.000323972007496 -0.000904904375985
0.001141915412878 -0.000336223373101 -0.000869045266335
0.001141787993394 -0.000344013573285 -0.000869266149509
0.001141657668128 -0.000351801782491 -0.000869492069891
0.001141524438669 -0.000359587956086 -0.000869723024727
0.001141388306639 -0.000367372049476 -0.000869959011201
0.001141249273699 -0.000375154018114 -0.000870200026439
0.001142743552634 -0.000379293709204 -0.000867545754528
0.001142637005758 -0.000387090345651 -0.000867728662215
0.001142527543032 -0.000394885131934 -0.000867916624970
0.001142415165800 -0.000402678023238 -0.000868109640472
0.001142299875441 -0.000410468974787 -0.000868307706342
0.001142181673369 -0.000418257941840 -0.000868510820139
0.001142060561035 -0.000426044879699 -0.000868718979361
0.001141936539923 -0.000433829743702 -0.000868932181444
0.001141809611553 -0.000441612489231 -0.000869150423765
0.001141679777480 -0.000449393071707 -0.000869373703640
0.001141547039294 -0.000457171446596 -0.000869602018322
0.001141411398619 -0.000464947569405 -0.000869835365006
0.001141272857116 -0.000472721395688 -0.000870073740825
0.001141131416478 -0.000480492881042 -0.000870317142854
0.001140987078437 -0.000488261981111 -0.000870565568103
0.001140839844755 -0.000496028651586 -0.000870819013526
0.001140689717231 -0.000503792848205 -0.000871077476016
0.001140536697700 -0.000511554526757 -0.000871340952404
0.001140380788028 -0.000519313643078 -0.000871609439463
0.001140221990120 -0.000527070153057 -0.000871882933906
0.001140060305911 -0.000534824012631 -0.000872161432384
0.001139895737374 -0.000542575177793 -0.000872444931492
0.001139728286514 -0.000550323604586 -0.000872733427762
0.001139557955372 -0.000558069249109 -0.000873026917669
0.001139384746022 -0.000565812067515 -0.000873325397628
0.001139208660572 -0.000573552016013 -0.000873628863993
0.001139029701165 -0.000581289050868 -0.000873937313061
0.001138847869977 -0.000589023128403 -0.000874250741070
0.001138663169221 -0.000596754204999 -0.000874569144197
0.001138475601139 -0.000604482237097 -0.000874892518563
0.001138285168011 -0.000612207181195 -0.000875220860227
0.001138091872148 -0.000619928993856 -0.000875554165194
0.001137895715897 -0.000627647631701 -0.000875892429405
0.001137696701637 -0.000635363051416 -0.000876235648748
0.001137494831781 -0.000643075209749 -0.000876583819050
0.001137290108776 -0.000650784063512 -0.000876936936079
0.001137082535102 -0.000658489569583 -0.000877294995547
0.001136872113271 -0.000666191684906 -0.000877657993108
0.001136658845831 -0.000673890366489 -0.000878025924359
0.001136442735362 -0.000681585571411 -0.000878398784836
0.001154884905270 -0.000696015730638 -0.000837175013971
0.001154695172964 -0.000703841892764 -0.000837501621008
0.001154502483720 -0.000711664729517 -0.000837833375962
0.001154306839930 -0.000719484196031 -0.000838170274686
0.001154108244026 -0.000727300247505 -0.000838512312974
0.001153906698472 -0.000735112839204 -0.000838859486556
0.001153702205770 -0.000742921926464 -0.000839211791102
0.001153494768455 -0.000750727464687 -0.000839569222220
0.001153284389099 -0.000758529409348 -0.000839931775457
0.001153071070307 -0.000766327715989 -0.000840299446297
0.001152854814721 -0.000774122340226 -0.000840672230167
0.001152635625017 -0.000781913237748 -0.000841050122430
0.001152413503906 -0.000789700364315 -0.000841433118388
0.001152188454135 -0.000797483675764 -0.000841821213285
0.001151960478483 -0.000805263128003 -0.000842214402302
0.001151729579767 -0.000813038677021 -0.000842612680561
0.001151495760835 -0.000820810278880 -0.000843016043123
0.001151259024572 -0.000828577889720 -0.000843424484991
0.001151019373897 -0.000836341465761 -0.000843838001105
0.001150776811762 -0.000844100963301 -0.000844256586348
0.001150531341154 -0.000851856338719 -0.000844680235543
0.001150282965095 -0.000859607548475 -0.000845108943453
0.001150031686639 -0.000867354549108 -0.000845542704781
0.001149777508876 -0.000875097297244 -0.000845981514173
0.001149520434929 -0.000882835749590 -0.000846425366214
0.001149260467953 -0.000890569862937 -0.000846874255432
0.001148997611139 -0.000898299594161 -0.000847328176297
0.001148731867712 -0.000906024900226 -0.000847787123217
0.001148463240927 -0.000913745738180 -0.000848251090545
0.001148191734075 -0.000921462065161 -0.000848720072576
0.001147917350480 -0.000929173838393 -0.000849194063545
0.001147640093499 -0.000936881015190 -0.000849673057631
0.001147359966522 -0.000944583552956 -0.000850157048955
0.001147076972971 -0.000952281409187 -0.000850646031581
0.001146791116302 -0.000959974541468 -0.000851139999515
0.001146502400003 -0.000967662907477 -0.000851638946707
0.001146210827595 -0.000975346464988 -0.000852142867050
0.001145916402631 -0.000983025171864 -0.000852651754378
0.001145619128698 -0.000990698986066 -0.000853165602473
0.001145319009414 -0.000998367865649 -0.000853684405057
0.001145016048428 -0.001006031768764 -0.000854208155798
0.001144710249423 -0.001013690653661 -0.000854736848306
0.001144401616113 -0.001021344478685 -0.000855270476139
0.001144090152246 -0.001028993202281 -0.000855809032796
0.001143775861597 -0.001036636782992 -0.000856352511722
0.001159559106316 -0.001058850356800 -0.000819651743086
0.001159229282467 -0.001066585418495 -0.000820224507884
0.001154207354668 -0.001075074669245 -0.000829172829619
0.001153833627210 -0.001082745229442 -0.000829824129550
0.001153457062790 -0.001090409880971 -0.000830480388366
0.001153077665994 -0.001098068582838 -0.000831141598066
0.001132667602836 -0.000119584869693 -0.000908334065312
0.001132585378653 -0.000127283288067 -0.000908477050430
0.001132500283275 -0.000134980597332 -0.000908624966946
0.001132412317723 -0.000142676753500 -0.000908777813092
0.001132321483056 -0.000150371712608 -0.000908935587044
0.001132227780363 -0.000158065430718 -0.000909098286915
0.001132131210772 -0.000165757863919 -0.000909265910762
0.001132031775442 -0.000173448968328 -0.000909438456580
0.001131929475569 -0.000181138700089 -0.000909615922307
0.001131824312380 -0.000188827015373 -0.000909798305822
0.001132899781968 -0.000192669560736 -0.000907885551779
0.001132826291982 -0.000200366563317 -0.000908011781735
0.001132749928057 -0.000208062416437 -0.000908142948107
0.001132670691118 -0.000215757076098 -0.000908279049308
0.001132588582122 -0.000223450498327 -0.000908420083691
0.001132503602065 -0.000231142639176 -0.000908566049549
0.001132415751973 -0.000238833454722 -0.000908716945117
0.001132325032910 -0.000246522901071 -0.000908872768571
0.001132231445971 -0.000254210934354 -0.000909033518025
0.001132134992289 -0.000261897510732 -0.000909199191536
0.001132035673029 -0.000269582586394 -0.000909369787103
0.001131933489391 -0.000277266117560 -0.000909545302663
0.001131828442611 -0.000284948060483 -0.000909725736096
0.001147433966061 -0.000296651930820 -0.000873943072660
0.001147319747776 -0.000304435674214 -0.000874140042415
0.001147202581594 -0.000312217638122 -0.000874342095827
0.001147082468958 -0.000319997777409 -0.000874549230407
0.001146959411346 -0.000327776046980 -0.000874761443608
0.001146833410271 -0.000335552401777 -0.000874978732817
0.001146704467284 -0.000343326796783 -0.000875201095363
0.001146572583970 -0.000351099187018 -0.000875428528511
0.001146437761950 -0.000358869527546 -0.000875661029466
0.001146300002882 -0.000366637773472 -0.000875898595368
0.001146159308458 -0.000374403879942 -0.000876141223301
0.001146015680405 -0.000382167802149 -0.000876388910283
0.001147555002922 -0.000386316318385 -0.000873668937038
0.001147443997790 -0.000394095220778 -0.000873858586025
0.001147330043533 -0.000401872212543 -0.000874053321206
0.001147213141562 -0.000409647248598 -0.000874253140157
0.001147093293322 -0.000417420283902 -0.000874458040397
0.001146970500297 -0.000425191273452 -0.000874668019381
0.001146844764003 -0.000432960172286 -0.000874883074501
0.001146716085994 -0.000440726935483 -0.000875103203091
0.001146584467860 -0.000448491518166 -0.000875328402419
0.001146449911225 -0.000456253875498 -0.000875558669694
0.001146312417751 -0.000464013962691 -0.000875794002063
0.001146171989134 -0.000471771734997 -0.000876034396612
0.001146028627105 -0.000479527147717 -0.000876279850365
0.001145882333432 -0.000487280156198 -0.000876530360283
0.001145733109918 -0.000495030715836 -0.000876785923271
0.001145580958401 -0.000502778782074 -0.000877046536167
0.001145425880754 -0.000510524310404 -0.000877312195752
0.001145267878887 -0.000518267256372 -0.000877582898745
0.001145106954743 -0.000526007575570 -0.000877858641804
0.001144943110302 -0.000533745223647 -0.000878139421526
0.001144776347579 -0.000541480156303 -0.000878425234449
0.001144606668621 -0.000549212329291 -0.000878716077049
0.001144434075514 -0.000556941698422 -0.000879011945742
0.001144258570378 -0.000564668219559 -0.000879312836885
0.001144080155365 -0.000572391848623 -0.000879618746773
0.001143898832665 -0.000580112541594 -0.000879929671642
0.001143714604502 -0.000587830254509 -0.000880245607668
0.001143527473133 -0.000595544943464 -0.000880566550968
0.001143337440852 -0.000603256564615 -0.000880892497599
0.001143144509986 -0.000610965074179 -0.000881223443556
0.001142948682897 -0.000618670428436 -0.000881559384779
0.001142749961980 -0.000626372583727 -0.000881900317145
0.001142548349666 -0.000634071496457 -0.000882246236473
0.001142343848421 -0.000641767123096 -0.000882597138525
0.001142136460741 -0.000649459420178 -0.000882953019001
0.001157909628326 -0.000666260955382 -0.000846672178752
0.001157689898539 -0.000674051075684 -0.000847050827363
0.001157467200468 -0.000681837615637 -0.000847434616045
0.001157241536883 -0.000689620530554 -0.000847823540013
0.001157012910590 -0.000697399775824 -0.000848217594421
0.001156781324429 -0.000705175306910 -0.000848616774361
0.001156546781276 -0.000712947079348 -0.000849021074865
0.001156309284043 -0.000720715048751 -0.000849430490902
0.001156068835675 -0.000728479170809 -0.000849845017382
0.001155825439154 -0.000736239401289 -0.000850264649155
0.001155579097497 -0.000743995696036 -0.000850689381008
0.001155329813754 -0.000751748010976 -0.000851119207670
0.001155077591012 -0.000759496302113 -0.000851554123808
0.001154822432391 -0.000767240525534 -0.000851994124029
0.001154564341046 -0.000774980637406 -0.000852439202883
0.001154303320167 -0.000782716593979 -0.000852889354856
0.001154039372977 -0.000790448351588 -0.000853344574378
0.001153772502736 -0.000798175866650 -0.000853804855817
0.001153502712735 -0.000805899095669 -0.000854270193485
0.001153230006301 -0.000813617995235 -0.000854740581631
0.001152954386794 -0.000821332522024 -0.000855216014449
0.001152675857609 -0.000829042632799 -0.000855696486072
0.001152394422174 -0.000836748284412 -0.000856181990574
0.001152110083951 -0.000844449433807 -0.000856672521973
0.001151822846435 -0.000852146038013 -0.000857168074227
0.001151532713154 -0.000859838054154 -0.000857668641237
0.001151239687672 -0.000867525439443 -0.000858174216846
0.001150943773583 -0.000875208151188 -0.000858684794839
0.001150644974516 -0.000882886146789 -0.000859200368944
0.001150343294132 -0.000890559383739 -0.000859720932833
0.001150038736126 -0.000898227819627 -0.000860246480118
0.001149731304225 -0.000905891412138 -0.000860777004357
0.001149421002188 -0.000913550119053 -0.000861312499051
0.001149107833810 -0.000921203898250 -0.000861852957643
0.001148791802913 -0.000928852707705 -0.000862398373520
0.001148472913357 -0.000936496505494 -0.000862948740015
0.001148151169029 -0.000944135249789 -0.000863504050404
0.001147826573853 -0.000951768898866 -0.000864064297907
0.001147499131781 -0.000959397411101 -0.000864629475688
0.001147168846799 -0.000967020744970 -0.000865199576857
0.001146835722924 -0.000974638859054 -0.000865774594470
0.001146499764205 -0.000982251712035 -0.000866354521525
0.001146160974723 -0.000989859262702 -0.000866939350967
0.001145819358589 -0.000997461469944 -0.000867529075689
0.001145474919947 -0.001005058292761 -0.000868123688526
0.001161153601905 -0.001026703118888 -0.000831847980827
0.001160792569235 -0.001034389294013 -0.000832473793958
0.001160428640953 -0.001042069769681 -0.000833104641872
0.001160061821547 -0.001049744503983 -0.000833740516781
0.001159692115536 -0.001057413455126 -0.000834381410838
0.001159319527470 -0.001065076581431 -0.000835027316143
0.001158944061934 -0.001072733841337 -0.000835678224737
0.001158565723541 -0.001080385193399 -0.000836334128610
0.001158184516939 -0.001088030596291 -0.000836995019694
0.001157800446805 -0.001095670008805 -0.000837660889869
0.001137608688424 -0.000111665936146 -0.000913975168283
0.001137528621393 -0.000119350214082 -0.000914113727777
0.001137445648170 -0.000127033422015 -0.000914257253069
0.001137359769759 -0.000134715515631 -0.000914405742433
0.001137270987202 -0.000142396450639 -0.000914559194079
0.001137179301574 -0.000150076182777 -0.000914717606158
0.001137084713986 -0.000157754667804 -0.000914880976762
0.001136987225584 -0.000165431861510 -0.000915049303921
0.001136886837549 -0.000173107719708 -0.000915222585606
0.001136783551098 -0.000180782198243 -0.000915400819730
0.001136677367481 -0.000188455252988 -0.000915584004142
0.001137757244659 -0.000192289377597 -0.000913673828960
0.001137682884275 -0.000199971105542 -0.000913800895811
0.001137605615981 -0.000207651676123 -0.000913932931691
0.001137525440720 -0.000215331045043 -0.000914069934989
0.001137442359471 -0.000223009168027 -0.000914211904033
0.001137356373246 -0.000230686000829 -0.000914358837092
0.001137267483096 -0.000238361499226 -0.000914510732373
0.001137175690103 -0.000246035619023 -0.000914667588025
0.001152853921796 -0.000257193250009 -0.000878965021103
0.001152753286002 -0.000264969491894 -0.000879137669575
0.001152649660784 -0.000272744169863 -0.000879315446632
0.001152543047431 -0.000280517238303 -0.000879498350066
0.001152433447268 -0.000288288651634 -0.000879686377604
0.001152320861654 -0.000296058364311 -0.000879879526911
0.001152205291990 -0.000303826330822 -0.000880077795589
0.001152086739708 -0.000311592505693 -0.000880281181176
0.001151965206281 -0.000319356843488 -0.000880489681148
0.001151840693217 -0.000327119298807 -0.000880703292918
0.001151713202060 -0.000334879826289 -0.000880922013836
0.001151582734391 -0.000342638380614 -0.000881145841189
0.001151449291829 -0.000350394916502 -0.000881374772203
0.001151312876026 -0.000358149388713 -0.000881608804039
0.001151173488673 -0.000365901752054 -0.000881847933798
0.001151031131498 -0.000373651961371 -0.000882092158517
0.001150885806263 -0.000381399971556 -0.000882341475172
0.001150737514767 -0.000389145737548 -0.000882595880676
0.001152322134403 -0.000393303412514 -0.000879810476031
0.001152206599470 -0.000401064468881 -0.000880006918249
0.001152088082216 -0.000408823553705 -0.000880208477303
0.001151966584116 -0.000416580621643 -0.000880415150667
0.001151842106687 -0.000424335627395 -0.000880626935754
0.001151714651479 -0.000432088525698 -0.000880843829914
0.001151584220080 -0.000439839271335 -0.000881065830435
0.001151450814115 -0.000447587819129 -0.000881292934539
0.001151314435243 -0.000455334123948 -0.000881525139390
0.001151175085162 -0.000463078140706 -0.000881762442086
0.001151032765606 -0.000470819824362 -0.000882004839666
0.001150887478343 -0.000478559129922 -0.000882252329103
0.001150739225179 -0.000486296012438 -0.000882504907312
0.001150588007956 -0.000494030427013 -0.000882762571143
0.001150433828553 -0.000501762328797 -0.000883025317384
0.001150276688883 -0.000509491672994 -0.000883293142763
0.001150116590896 -0.000517218414855 -0.000883566043946
0.001149953536579 -0.000524942509685 -0.000883844017536
0.001149787527952 -0.000532663912843 -0.000884127060075
0.001149618567074 -0.000540382579741 -0.000884415168044
0.001149446656038 -0.000548098465846 -0.000884708337863
0.001149271796972 -0.000555811526680 -0.000885006565890
0.001149093992042 -0.000563521717822 -0.000885309848422
0.001148913243447 -0.000571228994909 -0.000885618181696
0.001148729553423 -0.000578933313637 -0.000885931561886
0.001148542924240 -0.000586634629759 -0.000886249985108
0.001148353358206 -0.000594332899090 -0.000886573447416
0.001148160857662 -0.000602028077505 -0.000886901944802
0.001147965424984 -0.000609720120943 -0.000887235473201
0.001163823777822 -0.000625965419327 -0.000851013564129
0.001163616279973 -0.000633755839027 -0.000851369175565
0.001163405766105 -0.000641542877868 -0.000851729982520
0.001163192238864 -0.000649326490526 -0.000852095980448
0.001162975700932 -0.000657106631751 -0.000852467164738
0.001162756155029 -0.000664883256361 -0.000852843530719
0.001162533603910 -0.000672656319246 -0.000853225073655
0.001162308050367 -0.000680425775370 -0.000853611788748
0.001162079497228 -0.000688191579769 -0.000854003671139
0.001161847947357 -0.000695953687554 -0.000854400715905
0.001161613403655 -0.000703712053911 -0.000854802918060
0.001161375869057 -0.000711466634101 -0.000855210272560
0.001161135346537 -0.000719217383465 -0.000855622774294
0.001160891839101 -0.000726964257420 -0.000856040418092
0.001160645349794 -0.000734707211460 -0.000856463198724
0.001160395881695 -0.000742446201162 -0.000856891110896
0.001160143437919 -0.000750181182182 -0.000857324149254
0.001159888021617 -0.000757912110257 -0.000857762308382
0.001159629635972 -0.000765638941206 -0.000858205582805
0.001159368284208 -0.000773361630932 -0.000858653966985
0.001159103969578 -0.000781080135421 -0.000859107455325
0.001158836695376 -0.000788794410746 -0.000859566042168
0.001158566464925 -0.000796504413063 -0.000860029721796
0.001158293281587 -0.000804210098614 -0.000860498488430
0.001158017148758 -0.000811911423732 -0.000860972336234
0.001157738069867 -0.000819608344835 -0.000861451259309
0.001157456048379 -0.000827300818431 -0.000861935251699
0.001157171087793 -0.000834988801117 -0.000862424307388
0.001156883191642 -0.000842672249581 -0.000862918420301
0.001156592363493 -0.000850351120605 -0.000863417584304
0.001156298606949 -0.000858025371058 -0.000863921793204
0.001156001925644 -0.000865694957907 -0.000864431040749
0.001155702323248 -0.000873359838211 -0.000864945320630
0.001155399803464 -0.000881019969123 -0.000865464626480
0.001155094370029 -0.000888675307892 -0.000865988951871
0.001154786026713 -0.000896325811864 -0.000866518290322
0.001154474777320 -0.000903971438481 -0.000867052635290
0.001154160625686 -0.000911612145283 -0.000867591980178
0.001153843575682 -0.000919247889911 -0.000868136318329
0.001153523631211 -0.000926878630101 -0.000868685643031
0.001153200796208 -0.000934504323694 -0.000869239947515
0.001152875074644 -0.000942124928627 -0.000869799224955
0.001152546470520 -0.000949740402944 -0.000870363468468
0.001152214987869 -0.000957350704788 -0.000870932671117
0.001151880630759 -0.000964955792405 -0.000871506825907
0.001151543403288 -0.000972555624148 -0.000872085925787
0.001167309418454 -0.000993747217569 -0.000835864238477
0.001166955715707 -0.001001436936248 -0.000836474107181
0.001166599067602 -0.001009121086353 -0.000837089070366
0.001166239478585 -0.001016799625294 -0.000837709120356
0.001165876953135 -0.001024472510596 -0.000838334249416
0.001165511495764 -0.001032139699899 -0.000838964449754
0.001165143111017 -0.001039801150957 -0.000839599713521
0.001164771803472 -0.001047456821641 -0.000840240032811
0.001164397577739 -0.001055106669937 -0.000840885399662
0.001164020438462 -0.001062750653951 -0.000841535806054
0.001163640390316 -0.001070388731906 -0.000842191243913
0.001163257438009 -0.001078020862143 -0.000842851705107
0.001162871586281 -0.001085647003123 -0.000843517181451
0.001162482839903 -0.001093267113429 -0.000844187664703
0.001162091203681 -0.001100881151763 -0.000844863146565
0.001142433146602 -0.000111445952041 -0.000919763941231
0.001142352366333 -0.000119114988329 -0.000919902999151
0.001142268645836 -0.000126782949774 -0.000920047055245
0.001142181986134 -0.000134449791763 -0.000920196107763
0.001142092388285 -0.000142115469709 -0.000920350154895
0.001141999853386 -0.000149779939048 -0.000920509194770
0.001141904382565 -0.000157443155242 -0.000920673225455
0.001141805976990 -0.000165105073781 -0.000920842244956
0.001141704637862 -0.000172765650181 -0.000921016251220
0.001141600366420 -0.000180424839991 -0.000921195242130
0.001142649671097 -0.000184240743915 -0.000919348821645
0.001142577382481 -0.000191908281895 -0.000919471714314
0.001142502151034 -0.000199574699300 -0.000919599609877
0.001142423977682 -0.000207239951510 -0.000919732506760
0.001158172561690 -0.000217852746194 -0.000884113787469
0.001158085887624 -0.000225620413968 -0.000884261717021
0.001157996183258 -0.000233386737358 -0.000884414818489
0.001157903449716 -0.000241151670292 -0.000884573089952
0.001157807688162 -0.000248915166727 -0.000884736529427
0.001157708899796 -0.000256677180651 -0.000884905134865
0.001157607085855 -0.000264437666082 -0.000885078904152
0.001157502247616 -0.000272196577070 -0.000885257835111
0.001157394386392 -0.000279953867698 -0.000885441925501
0.001157283503534 -0.000287709492083 -0.000885631173016
0.001157169600430 -0.000295463404376 -0.000885825575286
0.001157052678506 -0.000303215558765 -0.000886025129877
0.001156932739226 -0.000310965909474 -0.000886229834292
0.001156809784091 -0.000318714410764 -0.000886439685969
0.001156683814639 -0.000326461016935 -0.000886654682283
0.001156554832444 -0.000334205682326 -0.000886874820546
0.001156422839121 -0.000341948361317 -0.000887100098004
0.001156287836318 -0.000349689008330 -0.000887330511841
0.001156149825723 -0.000357427577828 -0.000887566059179
0.001156008809060 -0.000365164024318 -0.000887806737075
0.001155864788090 -0.000372898302350 -0.000888052542523
0.001155717764612 -0.000380630366520 -0.000888303472453
0.001155567740460 -0.000388360171470 -0.000888559523734
0.001155414717507 -0.000396087671889 -0.000888820693170
0.001155258697661 -0.000403812822514 -0.000889086977504
0.001156924742744 -0.000407997934229 -0.000886173425318
0.001156801591326 -0.000415739000063 -0.000886381858275
0.001156675426020 -0.000423477987404 -0.000886595435592
0.001156546248409 -0.000431214850696 -0.000886814154575
0.001156414060117 -0.000438949544424 -0.000887038012467
0.001156278862802 -0.000446682023118 -0.000887267006445
0.001156140658161 -0.000454412241352 -0.000887501133626
0.001155999447928 -0.000462140153747 -0.000887740391061
0.001155855233873 -0.000469865714969 -0.000887984775739
0.001155708017804 -0.000477588879732 -0.000888234284587
0.001155557801566 -0.000485309602798 -0.000888488914466
0.001155404587039 -0.000493027838979 -0.000888748662178
0.001155248376141 -0.000500743543138 -0.000889013524458
0.001155089170829 -0.000508456670187 -0.000889283497981
0.001154926973093 -0.000516167175092 -0.000889558579358
0.001154761784961 -0.000523875012870 -0.000889838765140
0.001154593608498 -0.000531580138594 -0.000890124051812
0.001154422445806 -0.000539282507391 -0.000890414435800
0.001154248299022 -0.000546982074444 -0.000890709913465
0.001154071170320 -0.000554678794990 -0.000891010481108
0.001153891061910 -0.000562372624328 -0.000891316134966
0.001153707976040 -0.000570063517812 -0.000891626871217
0.001153521914990 -0.000577751430856 -0.000891942685975
0.001169454714041 -0.000593542794493 -0.000855799227444
0.001169256790811 -0.000601329419345 -0.000856136592298
0.001169055806709 -0.000609112821655 -0.000856479202585
0.001168851764287 -0.000616892955545 -0.000856827053946
0.001168644666133 -0.000624669775205 -0.000857180141955
0.001168434514875 -0.000632443234895 -0.000857538462122
0.001168221313176 -0.000640213288940 -0.000857902009895
0.001168005063737 -0.000647979891739 -0.000858270780654
0.001167785769298 -0.000655742997760 -0.000858644769720
0.001167563432633 -0.000663502561543 -0.000859023972346
0.001167338056555 -0.000671258537700 -0.000859408383724
0.001167109643916 -0.000679010880919 -0.000859797998981
0.001166878197601 -0.000686759545961 -0.000860192813181
0.001166643720534 -0.000694504487663 -0.000860592821325
0.001166406215676 -0.000702245660937 -0.000860998018352
0.001166165686024 -0.000709983020774 -0.000861408399136
0.001165922134612 -0.000717716522243 -0.000861823958491
0.001165675564510 -0.000725446120491 -0.000862244691166
0.001165425978824 -0.000733171770746 -0.000862670591849
0.001165173380698 -0.000740893428317 -0.000863101655166
0.001164917773311 -0.000748611048593 -0.000863537875679
0.001164659159877 -0.000756324587049 -0.000863979247890
0.001164397543648 -0.000764033999239 -0.000864425766240
0.001164132927911 -0.000771739240805 -0.000864877425106
0.001163865315989 -0.000779440267472 -0.000865334218806
0.001163594711240 -0.000787137035052 -0.000865796141596
0.001163321117059 -0.000794829499445 -0.000866263187670
0.001163044536875 -0.000802517616637 -0.000866735351162
0.001162764974153 -0.000810201342703 -0.000867212626146
0.001162482432394 -0.000817880633807 -0.000867695006635
0.001162196915132 -0.000825555446206 -0.000868182486581
0.001161908425938 -0.000833225736245 -0.000868675059878
0.001161616968417 -0.000840891460362 -0.000869172720358
0.001161322546210 -0.000848552575088 -0.000869675461794
0.001161025162992 -0.000856209037048 -0.000870183277900
0.001160724822472 -0.000863860802962 -0.000870696162329
0.001160421528394 -0.000871507829643 -0.000871214108678
0.001160115284536 -0.000879150074002 -0.000871737110483
0.001159806094711 -0.000886787493046 -0.000872265161220
0.001159493962766 -0.000894420043882 -0.000872798254309
0.001159178892581 -0.000902047683712 -0.000873336383112
0.001158860888072 -0.000909670369839 -0.000873879540929
0.001158539953186 -0.000917288059667 -0.000874427721007
0.001158216091905 -0.000924900710700 -0.000874980916531
0.001157889308247 -0.000932508280543 -0.000875539120633
0.001157559606258 -0.000940110726905 -0.000876102326382
0.001173412030801 -0.000960849491839 -0.000839935975969
0.001173065983049 -0.000968542354998 -0.000840529503479
0.001172716940054 -0.000976229784467 -0.000841128184760
0.001172364906214 -0.000983911736982 -0.000841732012256
0.001172009885961 -0.000991588169386 -0.000842340978353
0.001171651883761 -0.000999259038640 -0.000842955075378
0.001171290904117 -0.001006924301816 -0.000843574295597
0.001170926951562 -0.001014583916102 -0.000844198631222
0.001170560030665 -0.001022237838799 -0.000844828074403
0.001170190146029 -0.001029886027327 -0.000845462617233
0.001169817302289 -0.001037528439221 -0.000846102251748
0.001169441504114 -0.001045165032134 -0.000846746969926
0.001169062756208 -0.001052795763838 -0.000847396763686
0.001168681063307 -0.001060420592223 -0.000848051624893
0.001168296430178 -0.001068039475301 -0.000848711545354
0.001167908861623 -0.001075652371202 -0.000849376516818
0.001167518362477 -0.001083259238180 -0.000850046530979
0.001167124937607 -0.001090860034609 -0.000850721579476
0.001166728591912 -0.001098454718986 -0.000851401653891
0.001147298885612 -0.000103570651343 -0.000925427542327
0.001147220369267 -0.000111225445337 -0.000925562057681
0.001147138877634 -0.000118879204650 -0.000925701604969
0.001147054411718 -0.000126531884350 -0.000925846182483
0.001146966972557 -0.000134183439527 -0.000925995788453
0.001146876561229 -0.000141833825295 -0.000926150421047
0.001146783178848 -0.000149482996796 -0.000926310078369
0.001146686826564 -0.000157130909196 -0.000926474758466
0.001146587505563 -0.000164777517688 -0.000926644459317
0.001146485217070 -0.000172422777495 -0.000926819178845
0.001163387174500 -0.000178636004808 -0.000889391976468
0.001163314838899 -0.000186393998738 -0.000889514800257
0.001163239432831 -0.000194150871650 -0.000889642837612
0.001163160957249 -0.000201906577036 -0.000889776086914
0.001163079413146 -0.000209661068412 -0.000889914546477
0.001162994801554 -0.000217414299322 -0.000890058214549
0.001162907123543 -0.000225166223335 -0.000890207089314
0.001162816380222 -0.000232916794046 -0.000890361168888
0.001162722572736 -0.000240665965081 -0.000890520451325
0.001162625702274 -0.000248413690094 -0.000890684934610
0.001162525770057 -0.000256159922771 -0.000890854616666
0.001162422777350 -0.000263904616827 -0.000891029495348
0.001162316725453 -0.000271647726012 -0.000891209568448
0.001162207615705 -0.000279389204107 -0.000891394833691
0.001162095449484 -0.000287129004929 -0.000891585288738
0.001161980228206 -0.000294867082329 -0.000891780931184
0.001161861953326 -0.000302603390196 -0.000891981758561
0.001161740626335 -0.000310337882454 -0.000892187768335
0.001161616248764 -0.000318070513067 -0.000892398957906
0.001161488822181 -0.000325801236036 -0.000892615324613
0.001161358348194 -0.000333530005404 -0.000892836865726
0.001161224828446 -0.000341256775255 -0.000893063578453
0.001161088264620 -0.000348981499713 -0.000893295459937
0.001160948658437 -0.000356704132947 -0.000893532507258
0.001160806011655 -0.000364424629168 -0.000893774717430
0.001160660326069 -0.000372142942633 -0.000894022087403
0.001160511603514 -0.000379859027646 -0.000894274614063
0.001160359845861 -0.000387572838554 -0.000894532294234
0.001160205055019 -0.000395284329755 -0.000894795124674
0.001160047232933 -0.000402993455694 -0.000895063102078
0.001159886381589 -0.000410700170865 -0.000895336223077
0.001159722503008 -0.000418404429814 -0.000895614484238
0.001161470506704 -0.000422618399135 -0.000892573227673
0.001161339603444 -0.000430339193808 -0.000892793757050
0.001161205655002 -0.000438057802156 -0.000893019457537
0.001161068663072 -0.000445774178417 -0.000893250326268
0.001160928629386 -0.000453488276875 -0.000893486360312
0.001160785555717 -0.000461200051859 -0.000893727556673
0.001160639443871 -0.000468909457747 -0.000893973912291
0.001160490295695 -0.000476616448963 -0.000894225424043
0.001160338113072 -0.000484320979983 -0.000894482088742
0.001160182897924 -0.000492023005331 -0.000894743903135
0.001160024652209 -0.000499722479583 -0.000895010863909
0.001159863377923 -0.000507419357366 -0.000895282967683
0.001159699077101 -0.000515113593361 -0.000895560211017
0.001159531751813 -0.000522805142301 -0.000895842590405
0.001159361404166 -0.000530493958977 -0.000896130102277
0.001159188036307 -0.000538179998232 -0.000896422743003
0.001175202399945 -0.000553416369374 -0.000860343995685
0.001175017473505 -0.000561201635401 -0.000860657466075
0.001174829439116 -0.000568983887232 -0.000860976235051
0.001174638299190 -0.000576763078379 -0.000861300298513
0.001174444056177 -0.000584539162420 -0.000861629652294
0.001174246712566 -0.000592312092996 -0.000861964292165
0.001174046270883 -0.000600081823815 -0.000862304213828
0.001173842733696 -0.000607848308650 -0.000862649412920
0.001173636103607 -0.000615611501343 -0.000862999885013
0.001173426383260 -0.000623371355802 -0.000863355625613
0.001173213575336 -0.000631127826005 -0.000863716630161
0.001172997682553 -0.000638880866002 -0.000864082894033
0.001172778707668 -0.000646630429912 -0.000864454412541
0.001172556653478 -0.000654376471927 -0.000864831180930
0.001172331522814 -0.000662118946312 -0.000865213194382
0.001172103318548 -0.000669857807405 -0.000865600448015
0.001171872043589 -0.000677593009619 -0.000865992936880
0.001171637700881 -0.000685324507445 -0.000866390655967
0.001171400293411 -0.000693052255447 -0.000866793600200
0.001171159824198 -0.000700776208269 -0.000867201764440
0.001170916296301 -0.000708496320634 -0.000867615143484
0.001170669712816 -0.000716212547341 -0.000868033732065
0.001170420076876 -0.000723924843274 -0.000868457524854
0.001170167391652 -0.000731633163394 -0.000868886516457
0.001169911660350 -0.000739337462746 -0.000869320701418
0.001169652886214 -0.000747037696457 -0.000869760074218
0.001169391072525 -0.000754733819741 -0.000870204629275
0.001169126222600 -0.000762425787892 -0.000870654360946
0.001168858339794 -0.000770113556292 -0.000871109263523
0.001168587427496 -0.000777797080411 -0.000871569331238
0.001168313489133 -0.000785476315803 -0.000872034558260
0.001168036528169 -0.000793151218112 -0.000872504938697
0.001167756548103 -0.000800821743073 -0.000872980466595
0.001167473552468 -0.000808487846507 -0.000873461135937
0.001167187544838 -0.000816149484328 -0.000873946940648
0.001166898528818 -0.000823806612542 -0.000874437874589
0.001166606508051 -0.000831459187247 -0.000874933931561
0.001166311486214 -0.000839107164635 -0.000875435105306
0.001166013467023 -0.000846750500990 -0.000875941389503
0.001165712454225 -0.000854389152693 -0.000876452777773
0.001165408451605 -0.000862023076221 -0.000876969263675
0.001165101462982 -0.000869652228146 -0.000877490840708
0.001164791492210 -0.000877276565140 -0.000878017502315
0.001164478543179 -0.000884896043971 -0.000878549241874
0.001164162619811 -0.000892510621508 -0.000879086052707
0.001163843726067 -0.000900120254719 -0.000879627928078
0.001163521865939 -0.000907724900672 -0.000880174861189
0.001179459721838 -0.000928011254764 -0.000844065243859
0.001179121656353 -0.000935706841776 -0.000844642036113
0.001178780545633 -0.000943397133978 -0.000845224040965
0.001178436394021 -0.000951082087430 -0.000845811250992
0.001178089205897 -0.000958761658302 -0.000846403658709
0.001177738985678 -0.000966435802875 -0.000847001256570
0.001177385737811 -0.000974104477543 -0.000847604036971
0.001177029466784 -0.000981767638813 -0.000848211992246
0.001176670177117 -0.000989425243305 -0.000848825114670
0.001176307873364 -0.000997077247753 -0.000849443396456
0.001175942560117 -0.001004723609009 -0.000850066829761
0.001175574241999 -0.001012364284039 -0.000850695406680
0.001175202923670 -0.001019999229927 -0.000851329119250
0.001174828609823 -0.001027628403874 -0.000851967959450
0.001174451305186 -0.001035251763199 -0.000852611919200
0.001174071014520 -0.001042869265343 -0.000853260990361
0.001168454064321 -0.001050911833913 -0.000863087106550
0.001168029653735 -0.001058462228794 -0.000863813409842
0.001167602336598 -0.001066006278182 -0.000864544687178
0.001167172118221 -0.001073543941312 -0.000865280929472
0.001166739003945 -0.001081075177552 -0.000866022127581
0.001166302999144 -0.001088599946401 -0.000866768272313
0.001165864109219 -0.001096118207487 -0.000867519354420
0.001152049590446 -0.000103364940521 -0.000931234280727
0.001151970398787 -0.000111004427409 -0.000931369244643
0.001151888197750 -0.000118642875209 -0.000931509272240
0.001151802988354 -0.000126280238692 -0.000931654361789
0.001151714771659 -0.000133916472654 -0.000931804511501
0.001167524716977 -0.000143486407358 -0.000896495212334
0.001167427411558 -0.000151224410387 -0.000896661322721
0.001167327008956 -0.000158961102969 -0.000896832664799
0.001167223510442 -0.000166696438436 -0.000897009236406
0.001167116917326 -0.000174430370148 -0.000897191035319
0.001168175851975 -0.000178275337835 -0.000895341351677
0.001168102687449 -0.000186017593103 -0.000895464947741
0.001168026417331 -0.000193758720029 -0.000895593790048
0.001167947042594 -0.000201498671801 -0.000895727876954
0.001167864564252 -0.000209237401635 -0.000895867206749
0.001167778983355 -0.000216974862772 -0.000896011777657
0.001167690300994 -0.000224711008479 -0.000896161587834
0.001167598518301 -0.000232445792053 -0.000896316635372
0.001167503636443 -0.000240179166818 -0.000896476918294
0.001167405656631 -0.000247911086129 -0.000896642434559
0.001167304580113 -0.000255641503372 -0.000896813182057
0.001167200408175 -0.000263370371963 -0.000896989158614
0.001167093142144 -0.000271097645353 -0.000897170361990
0.001166982783386 -0.000278823277025 -0.000897356789877
0.001166869333306 -0.000286547220500 -0.000897548439902
0.001166752793347 -0.000294269429331 -0.000897745309628
0.001166633164991 -0.000301989857110 -0.000897947396549
0.001166510449760 -0.000309708457465 -0.000898154698096
0.001166384649215 -0.000317425184066 -0.000898367211631
0.001166255764955 -0.000325139990618 -0.000898584934455
0.001166123798617 -0.000332852830870 -0.000898807863799
0.001165988751879 -0.000340563658612 -0.000899035996831
0.001165850626456 -0.000348272427676 -0.000899269330654
0.001165709424101 -0.000355979091938 -0.000899507862304
0.001165565146608 -0.000363683605318 -0.000899751588754
0.001165417795807 -0.000371385921781 -0.000900000506910
0.001165267373568 -0.000379085995339 -0.000900254613614
0.001165113881798 -0.000386783780052 -0.000900513905643
0.001164957322445 -0.000394479230028 -0.000900778379710
0.001164797697492 -0.000402172299423 -0.000901048032462
0.001164635008961 -0.000409862942445 -0.000901322860482
0.001164469258915 -0.000417551113351 -0.000901602860290
0.001164300449451 -0.000425236766453 -0.000901888028339
0.001164128582707 -0.000432919856113 -0.000902178361019
0.001165959056195 -0.000437164091700 -0.000899009875696
0.001165820266635 -0.000444864333068 -0.000899242603847
0.001165678400886 -0.000452562279433 -0.000899480529071
0.001165533460755 -0.000460257884836 -0.000899723648326
0.001165385448090 -0.000467951103368 -0.000899971958504
0.001165234364775 -0.000475641889170 -0.000900225456432
0.001165080212734 -0.000483330196430 -0.000900484138871
0.001164922993927 -0.000491015979389 -0.000900748002520
0.001164762710354 -0.000498699192339 -0.000901017044010
0.001164599364053 -0.000506379789625 -0.000901291259910
0.001180685006342 -0.000521164116687 -0.000865295570285
0.001180510327591 -0.000528944246355 -0.000865590052779
0.001180332496559 -0.000536721527709 -0.000865889881788
0.001180151515550 -0.000544495913732 -0.000866195053419
0.001179967386906 -0.000552267357465 -0.000866505563712
0.001179780113008 -0.000560035812013 -0.000866821408638
0.001179589696279 -0.000567801230541 -0.000867142584101
0.001179396139179 -0.000575563566281 -0.000867469085939
0.001179199444209 -0.000583322772525 -0.000867800909921
0.001178999613909 -0.000591078802636 -0.000868138051752
0.001178796650858 -0.000598831610038 -0.000868480507069
0.001178590557676 -0.000606581148225 -0.000868828271441
0.001178381337018 -0.000614327370761 -0.000869181340372
0.001178168991584 -0.000622070231276 -0.000869539709301
0.001177953524107 -0.000629809683472 -0.000869903373598
0.001177734937364 -0.000637545681123 -0.000870272328568
0.001177513234166 -0.000645278178074 -0.000870646569452
0.001177288417368 -0.000653007128242 -0.000871026091424
0.001177060489858 -0.000660732485622 -0.000871410889592
0.001176829454567 -0.000668454204280 -0.000871800958998
0.001176595314463 -0.000676172238360 -0.000872196294622
0.001176358072551 -0.000683886542081 -0.000872596891375
0.001176117731876 -0.000691597069743 -0.000873002744106
0.001175874295521 -0.000699303775722 -0.000873413847598
0.001175627766606 -0.000707006614474 -0.000873830196569
0.001175378148289 -0.000714705540537 -0.000874251785674
0.001175125443767 -0.000722400508529 -0.000874678609503
0.001174869656275 -0.000730091473151 -0.000875110662582
0.001174610789083 -0.000737778389187 -0.000875547939373
0.001174348845502 -0.000745461211506 -0.000875990434275
0.001174083828879 -0.000753139895060 -0.000876438141621
0.001173815742596 -0.000760814394890 -0.000876891055685
0.001173544590076 -0.000768484666121 -0.000877349170674
0.001173270374777 -0.000776150663969 -0.000877812480734
0.001172993100195 -0.000783812343735 -0.000878280979947
0.001172712769862 -0.000791469660812 -0.000878754662334
0.001172429387348 -0.000799122570682 -0.000879233521851
0.001172142956258 -0.000806771028919 -0.000879717552396
0.001171853480234 -0.000814414991190 -0.000880206747800
0.001171560962956 -0.000822054413254 -0.000880701101835
0.001171265408139 -0.000829689250963 -0.000881200608211
0.001170966819535 -0.000837319460265 -0.000881705260577
0.001170665200930 -0.000844944997204 -0.000882215052520
0.001170360556149 -0.000852565817919 -0.000882729977565
0.001170052889051 -0.000860181878646 -0.000883250029178
0.001169742203531 -0.000867793135722 -0.000883775200764
0.001169428503520 -0.000875399545580 -0.000884305485666
0.001169111792985 -0.000883001064753 -0.000884840877170
0.001185121003934 -0.000902931792679 -0.000848813742626
0.001184788154690 -0.000910624509473 -0.000849378679461
0.001184452214431 -0.000918312029708 -0.000849948879926
0.001184113187476 -0.000925994308880 -0.000850524336678
0.001183771078183 -0.000933671302597 -0.000851105042308
0.001183425890944 -0.000941342966578 -0.000851690989347
0.001183077630189 -0.000949009256652 -0.000852282170266
0.001177928844999 -0.000957726169152 -0.000861239605644
0.001177535358077 -0.000965330740268 -0.000861909515461
0.001177138871822 -0.000972929429556 -0.000862584531630
0.001176739391249 -0.000980522194530 -0.000863264645612
0.001176336921408 -0.000988108992827 -0.000863949848810
0.001175931467382 -0.000995689782208 -0.000864640132570
0.001175523034288 -0.001003264520559 -0.000865335488182
0.001175111627274 -0.001010833165893 -0.000866035906878
0.001174697251524 -0.001018395676347 -0.000866741379836
0.001174279912254 -0.001025952010186 -0.000867451898174
0.001173859614712 -0.001033502125805 -0.000868167452958
0.001173436364179 -0.001041045981723 -0.000868888035196
0.001173010165969 -0.001048583536594 -0.000869613635842
0.001172581025428 -0.001056114749197 -0.000870344245794
0.001172148947933 -0.001063639578444 -0.000871079855897
0.001171713938895 -0.001071157983379 -0.000871820456940
0.001171276003756 -0.001078669923176 -0.000872566039658
0.001170835147989 -0.001086175357145 -0.000873316594732
0.001170391377099 -0.001093674244726 -0.000874072112791
0.001172636537002 -0.000112295334761 -0.000901833510164
0.001172550903145 -0.000120022395469 -0.000901979156598
0.001172462132271 -0.000127748327925 -0.000902130075070
0.001172370225512 -0.000135473085048 -0.000902286263664
0.001172275184043 -0.000143196619784 -0.000902447720398
0.001172177009076 -0.000150918885109 -0.000902614443220
0.001172075701865 -0.000158639834023 -0.000902786430013
0.001171971263702 -0.000166359419560 -0.000902963678593
0.001172997373964 -0.000170186302767 -0.000901180544707
0.001172926521956 -0.000177913873733 -0.000901299624729
0.001172852528273 -0.000185640356235 -0.000901423984921
0.001172775393867 -0.000193365703140 -0.000901553623685
0.001172695119729 -0.000201089867338 -0.000901688539354
0.001172611706892 -0.000208812801745 -0.000901828730194
0.001172525156426 -0.000216534459305 -0.000901974194403
0.001172435469445 -0.000224254792985 -0.000902124930112
0.001172342647100 -0.000231973755785 -0.000902280935385
0.001172246690584 -0.000239691300732 -0.000902442208217
0.001172147601129 -0.000247407380884 -0.000902608746538
0.001172045380008 -0.000255121949328 -0.000902780548209
0.001171940028532 -0.000262834959188 -0.000902957611025
0.001171831548054 -0.000270546363617 -0.000903139932713
0.001171719939965 -0.000278256115805 -0.000903327510934
0.001171605205698 -0.000285964168976 -0.000903520343281
0.001171487346724 -0.000293670476389 -0.000903718427281
0.001171366364554 -0.000301374991344 -0.000903921760395
0.001171242260739 -0.000309077667176 -0.000904130340015
0.001171115036871 -0.000316778457261 -0.000904344163469
0.001170984694578 -0.000324477315014 -0.000904563228016
0.001170851235530 -0.000332174193892 -0.000904787530851
0.001170714661438 -0.000339869047393 -0.000905017069101
0.001170574974048 -0.000347561829061 -0.000905251839827
0.001170432175150 -0.000355252492481 -0.000905491840025
0.001170286266569 -0.000362940991285 -0.000905737066623
0.001170137250174 -0.000370627279149 -0.000905987516485
0.001169985127868 -0.000378311309800 -0.000906243186409
0.001169829901597 -0.000385993037008 -0.000906504073125
0.001169671573345 -0.000393672414597 -0.000906770173299
0.001169510145134 -0.000401349396437 -0.000907041483533
0.001169345619026 -0.000409023936450 -0.000907318000361
0.001169177997122 -0.000416695988611 -0.000907599720252
0.001169007281560 -0.000424365506947 -0.000907886639612
0.001168833474519 -0.000432032445539 -0.000908178754780
0.001168656578216 -0.000439696758522 -0.000908476062029
0.001168476594906 -0.000447358400088 -0.000908778557571
0.001168293526882 -0.000455017324485 -0.000909086237548
0.001168107376477 -0.000462673486017 -0.000909399098043
0.001170093301549 -0.000466990702244 -0.000905978625309
0.001169940280333 -0.000474665251637 -0.000906234092465
0.001186095659514 -0.000488998650906 -0.000870323573090
0.001185931542747 -0.000496773024308 -0.000870598730089
0.001185764229640 -0.000504544718709 -0.000870879280556
0.001185593722381 -0.000512313686570 -0.000871165220813
0.001185420023197 -0.000520079880411 -0.000871456547112
0.001185243134356 -0.000527843252808 -0.000871753255638
0.001185063058168 -0.000535603756399 -0.000872055342505
0.001184879796982 -0.000543361343880 -0.000872362803760
0.001184693353188 -0.000551115968011 -0.000872675635382
0.001184503729218 -0.000558867581613 -0.000872993833281
0.001184310927542 -0.000566616137572 -0.000873317393298
0.001184114950671 -0.000574361588836 -0.000873646311208
0.001183915801158 -0.000582103888421 -0.000873980582716
0.001183713481594 -0.000589842989407 -0.000874320203460
0.001183507994610 -0.000597578844945 -0.000874665169012
0.001183299342879 -0.000605311408252 -0.000875015474875
0.001183087529113 -0.000613040632614 -0.000875371116483
0.001182872556062 -0.000620766471388 -0.000875732089207
0.001182654426517 -0.000628488878003 -0.000876098388348
0.001182433143311 -0.000636207805960 -0.000876470009140
0.001182208709312 -0.000643923208833 -0.000876846946753
0.001181981127431 -0.000651635040270 -0.000877229196286
0.001181750400617 -0.000659343253995 -0.000877616752776
0.001181516531858 -0.000667047803807 -0.000878009611192
0.001181279524182 -0.000674748643582 -0.000878407766436
0.001181039380654 -0.000682445727277 -0.000878811213346
0.001180796104382 -0.000690139008924 -0.000879219946693
0.001180549698508 -0.000697828442636 -0.000879633961181
0.001180300166216 -0.000705513982609 -0.000880053251453
0.001180047510729 -0.000713195583117 -0.000880477812082
0.001179791735305 -0.000720873198521 -0.000880907637578
0.001179532843245 -0.000728546783261 -0.000881342722387
0.001179270837885 -0.000736216291866 -0.000881783060889
0.001179005722600 -0.000743881678947 -0.000882228647400
0.001178737500804 -0.000751542899203 -0.000882679476171
0.001178466175948 -0.000759199907420 -0.000883135541389
0.001178191751522 -0.000766852658472 -0.000883596837178
0.001177914231053 -0.000774501107321 -0.000884063357598
0.001177633618106 -0.000782145209021 -0.000884535096644
0.001177349916283 -0.000789784918716 -0.000885012048248
0.001177063129225 -0.000797420191640 -0.000885494206281
0.001176773260608 -0.000805050983123 -0.000885981564548
0.001176480314147 -0.000812677248586 -0.000886474116793
0.001176184293594 -0.000820298943544 -0.000886971856696
0.001175885202737 -0.000827916023609 -0.000887474777875
0.001175583045402 -0.000835528444488 -0.000887982873888
0.001175277825451 -0.000843136161986 -0.000888496138228
0.001170769828659 -0.000852402637104 -0.000896268984530
0.001186674422660 -0.000871799636194 -0.000860651770845
0.001186310246344 -0.000879447684503 -0.000861268594749
0.001185942985283 -0.000887090293679 -0.000861890643441
0.001185572644200 -0.000894727419701 -0.000862517908925
0.001185199227851 -0.000902359018665 -0.000863150383141
0.001184822741032 -0.000909985046784 -0.000863788057969
0.001184443188570 -0.000917605460388 -0.000864430925231
0.001184060575332 -0.000925220215927 -0.000865078976685
0.001183674906218 -0.000932829269970 -0.000865732204032
0.001183286186163 -0.000940432579205 -0.000866390598911
0.001182894420139 -0.000948030100444 -0.000867054152904
0.001182499613150 -0.000955621790620 -0.000867722857533
0.001182101770238 -0.000963207606786 -0.000868396704259
0.001181700896477 -0.000970787506123 -0.000869075684487
0.001181296996977 -0.000978361445933 -0.000869759789563
0.001180890076883 -0.000985929383644 -0.000870449010773
0.001180480141371 -0.000993491276811 -0.000871143339348
0.001180067195655 -0.001001047083113 -0.000871842766460
0.001179651244980 -0.001008596760358 -0.000872547283223
0.001179232294625 -0.001016140266483 -0.000873256880696
